ply
format ascii 1.0
comment author: Alexander Kryvonos
comment object: reconstructed scene with color
element vertex 910
property double x
property double y
property double z
property uchar red
property uchar green
property uchar blue
end_header
-1.048407 2.015467 8.285945 42 52 75
-3.145883 1.317945 4.325604 25 29 41
-1.850321 1.592786 7.178673 47 58 82
-2.075755 1.444234 6.847676 37 48 73
1.660587 4.757762 11.010970 138 154 194
4.518448 2.174295 5.399446 180 202 226
1.616392 5.106348 10.818036 128 143 187
4.560551 2.132426 4.524490 167 195 230
-3.468089 1.273736 4.076707 151 182 216
4.495989 2.462056 5.349965 183 202 226
4.641159 2.067199 4.463521 162 183 229
-0.611750 2.656733 10.481691 44 53 75
-2.922720 0.890540 5.300602 58 72 99
2.369057 4.398743 9.333223 122 138 175
-3.216096 1.598564 4.030023 116 138 187
4.053712 2.779770 4.607031 179 207 223
4.677867 1.786056 4.516673 163 186 231
4.871415 3.791841 6.190682 60 87 136
6.111154 -3.257790 6.187977 64 109 201
2.835544 2.855541 8.601576 97 118 167
-2.590439 0.995852 5.549770 43 55 77
1.719398 3.789456 11.178852 135 158 200
4.136712 3.219678 5.446096 102 118 149
2.365654 3.902197 9.381454 146 164 197
-0.804304 2.138084 8.571045 50 60 85
-3.456724 0.950061 4.108713 158 194 225
4.726612 0.866355 4.760703 70 81 117
3.532876 0.300755 7.990907 49 61 90
3.866129 2.937780 6.206496 147 175 214
4.935059 -2.873512 5.817068 68 115 205
-2.395217 2.744221 4.363075 115 145 204
-3.812028 1.176955 4.219666 88 100 143
4.182994 2.840715 5.276719 72 76 106
3.342247 4.203795 7.356622 67 75 116
-2.741166 1.006391 5.219829 86 102 149
-0.586847 2.558516 10.063389 44 53 74
4.721615 1.504928 4.579030 168 190 230
-3.498973 1.068512 4.131300 158 192 224
4.542073 2.184733 4.635052 136 164 201
-3.046413 0.568996 4.486067 48 64 95
4.588259 2.821542 5.313802 36 46 75
-3.206705 1.264259 4.063569 105 127 177
-2.866790 0.876253 5.199090 57 72 98
3.758806 2.269490 7.469861 200 227 236
-3.322544 0.905124 4.096638 46 69 107
-2.615728 3.161025 5.040145 103 131 194
4.971452 -2.729000 5.239439 69 114 203
3.861585 -2.278666 4.544467 67 113 205
-1.103766 2.113944 8.723264 44 54 77
3.626947 3.603302 7.189109 183 211 222
-1.199502 1.821755 7.606579 47 58 83
2.881473 3.734993 8.313320 112 138 188
3.800287 2.931168 6.278781 80 91 132
-2.907378 1.412003 4.363671 102 118 161
-1.421376 1.969855 8.361956 49 59 86
4.474819 2.331145 5.461902 19 35 53
2.344820 4.160224 9.299420 134 150 183
4.385557 2.600023 5.349898 17 31 40
0.184068 3.159643 11.933583 42 52 74
-1.125211 1.199527 5.698558 42 59 102
-3.226710 1.602281 4.043916 115 137 186
4.632904 2.099052 4.463204 156 178 226
4.034068 3.001760 5.747719 66 71 121
4.486280 2.132710 5.486166 17 34 47
4.718419 1.464307 4.577945 147 168 210
-3.003403 3.454378 5.459156 109 139 198
4.654377 1.721148 4.628547 173 203 233
6.966130 -3.924679 7.782643 66 113 203
-2.074630 1.172146 6.436628 35 52 93
3.516177 2.973879 7.734121 176 188 222
-2.893551 2.042426 4.321760 92 108 155
-1.783043 1.618026 7.240760 49 62 86
-1.601173 2.769996 7.243908 57 69 118
-0.466070 2.581581 10.095674 41 49 72
4.187479 2.839504 5.284606 69 72 101
2.971213 3.031654 8.396251 129 154 199
-1.680767 2.163651 3.282399 52 90 95
-3.398293 1.223883 4.105331 126 151 196
6.762875 -4.102801 8.534394 67 114 202
3.432251 2.493261 7.860762 61 81 121
-0.414966 4.641191 9.830999 58 75 126
-3.462138 0.753516 4.152838 159 196 230
-0.512642 2.886499 4.802985 91 114 175
-3.515865 1.077614 4.150266 159 192 224
-3.208802 1.880289 3.998831 100 120 168
4.280381 2.902668 5.401756 68 73 101
-0.082017 2.947681 4.897634 93 115 180
6.730767 -3.793051 7.519294 65 112 202
-0.919075 2.248433 9.091689 47 58 82
-3.398678 1.217132 4.097536 126 151 196
1.263148 0.967207 1.877802 164 192 233
4.433017 2.388872 5.584841 17 23 53
-3.224410 1.268953 4.086627 105 127 177
3.930243 2.461265 6.337563 135 163 200
5.043139 -2.956820 5.938629 68 115 206
4.335446 2.665886 5.021112 34 46 75
3.985309 3.359939 5.582140 164 189 208
-2.428479 0.675248 5.783380 14 31 67
-3.471482 1.276785 4.080160 156 187 222
-3.027996 2.400220 3.977012 94 120 178
-1.572262 1.633881 7.972486 39 57 103
2.426381 -1.503248 3.432791 19 28 52
-3.174757 0.180887 4.092847 131 166 223
4.575530 2.265955 5.352576 15 24 54
-2.156720 1.246539 7.276473 57 71 113
3.864238 -2.282653 4.547299 68 115 206
-0.266808 4.783466 10.058485 97 109 158
4.271683 2.265657 5.761085 85 80 118
1.856285 -1.207778 2.488867 69 112 203
2.169277 3.650395 9.707985 34 40 56
-1.110845 2.436721 3.788413 45 78 100
-2.483872 0.961267 5.320868 39 51 73
5.987139 -3.785215 9.143462 17 26 56
4.528779 -1.217734 6.319249 169 203 223
4.569909 1.940797 5.472945 166 189 221
-2.122832 1.194185 6.586297 38 56 98
1.893122 4.277900 10.885579 48 45 61
2.564525 -1.550214 3.492239 19 29 53
-0.083527 3.003409 5.001247 88 110 174
0.177343 3.043783 11.471405 41 50 73
3.420098 3.768018 7.518296 162 188 211
3.953250 -0.074940 7.056067 192 214 241
-1.226231 2.323981 3.791148 89 115 178
2.847973 -1.713406 3.879070 19 28 53
2.001239 3.506675 11.145252 18 29 50
3.047277 -1.827406 4.151248 17 25 53
4.620192 1.636524 5.464118 106 140 164
3.002017 -1.800908 4.089494 18 26 53
-1.323292 3.520072 5.465285 48 84 98
2.141678 -1.306773 2.915455 16 25 51
0.896808 1.320422 2.204362 115 142 174
4.447753 -0.951778 6.159517 177 210 234
4.078858 -1.804766 7.601083 188 208 232
-0.861357 1.905303 9.529749 63 77 118
-3.282918 1.982916 3.980753 55 70 117
-2.017788 2.308642 3.677725 110 139 199
4.174568 0.631281 5.954944 64 78 117
2.516274 -1.522035 3.426421 16 25 51
4.865213 -2.744109 5.434276 64 110 201
3.701113 2.805319 7.345397 192 209 231
-2.245683 3.339403 5.806326 53 64 98
1.071350 0.635015 2.134025 196 224 236
3.033024 3.173375 8.606278 130 157 200
2.319378 -1.408362 3.157822 19 28 53
-0.421094 4.705484 9.977337 65 83 134
3.817499 2.497298 4.296179 77 82 124
-3.003274 1.246428 4.358190 21 28 43
4.590938 2.002715 5.334636 29 39 62
-1.563020 1.797083 7.579624 52 64 94
0.260183 -0.445432 1.187024 16 25 52
3.407814 -2.034907 4.643719 15 25 53
-2.088190 1.211985 7.045559 56 69 111
-0.092508 3.299758 5.455212 91 113 178
-1.624871 1.683075 8.238179 40 58 104
-1.962970 2.520679 3.839289 50 87 107
5.164127 -2.751760 5.197949 67 111 202
2.701798 4.106350 7.688513 117 141 193
3.214294 3.396511 6.335904 60 70 98
4.556797 2.247442 4.403970 161 189 230
2.441467 -1.434824 3.250536 54 65 87
2.201988 -1.395370 2.916126 68 110 198
4.533793 2.335714 4.734521 66 81 120
4.629908 0.548405 5.498647 45 63 111
2.024978 3.436061 11.322827 17 26 46
4.353845 -0.177129 6.023587 177 211 236
-2.596688 1.022528 5.528184 53 67 93
-0.594308 2.507265 9.639682 55 63 91
2.106466 -1.286100 2.867440 16 25 51
3.980516 -0.297754 7.338319 178 207 235
4.419230 -0.738366 6.275346 62 83 114
3.487110 3.599394 7.662063 178 193 224
2.506344 1.955124 3.182850 65 91 139
4.304433 -2.181791 7.252248 88 93 133
-3.478183 1.921881 4.046661 144 172 208
4.629337 1.765500 4.832376 67 86 125
3.261622 4.773391 8.030621 110 135 168
2.970329 4.119889 7.205810 56 69 107
-3.168769 1.280467 3.995183 112 133 182
4.045922 3.237337 5.694781 72 80 126
-3.596579 0.964526 4.131118 86 99 137
-3.667336 1.121242 4.062537 83 97 140
-3.059465 2.537593 4.377039 34 40 57
4.687994 -2.685895 6.253171 55 67 91
2.834632 4.473449 7.992531 108 131 182
4.310344 2.781122 5.540881 191 219 233
-3.023486 1.258239 4.336371 26 30 41
4.022613 2.749691 5.926282 126 142 194
2.996327 -1.744640 3.990970 52 63 86
3.183483 -1.848065 4.240979 54 63 86
-0.920131 2.401735 9.415620 52 62 93
3.729087 3.504174 6.203467 77 85 126
1.996454 -1.222648 2.717435 22 30 55
-3.242677 1.190116 4.070358 106 125 171
0.970229 1.156411 2.169968 63 69 97
4.375113 2.444478 5.643174 150 163 199
4.372140 -1.507872 6.509947 73 88 126
3.890112 2.977032 5.783920 170 196 238
3.974748 2.061416 6.148123 154 183 227
3.829183 2.040165 7.284958 53 66 98
-3.033317 1.548420 4.603327 104 121 164
-2.842588 0.573681 4.995902 93 122 170
-3.506085 1.499778 4.093142 138 166 203
2.553476 3.108361 9.542069 54 63 102
6.106566 -3.609475 8.408196 13 24 52
-3.094198 1.166717 4.489067 82 100 150
-2.997352 0.881399 5.459733 40 53 74
4.229225 -1.413642 7.094103 85 97 143
2.685142 -0.196189 10.444424 155 182 212
-2.165876 1.280226 6.062844 58 71 106
2.870744 2.476661 8.579448 56 69 105
3.043896 -1.771630 4.054429 53 63 86
4.396597 2.725426 5.064958 62 70 97
4.091850 2.342674 6.305456 157 187 228
1.099288 -1.549766 4.877779 24 34 66
3.429153 4.422881 8.085568 80 81 122
-2.794108 0.756246 5.122461 74 95 146
4.129815 2.682653 5.736016 87 81 121
4.212191 -2.124332 7.098685 97 101 143
-2.593952 3.231769 5.471894 60 73 115
4.493446 -2.992521 6.541190 66 110 202
4.484051 1.540967 5.151742 99 131 162
-3.101806 0.152229 4.147811 47 78 156
0.502623 -0.568812 1.503495 46 56 80
-3.664326 1.538775 4.103079 88 96 136
4.074154 -0.320288 7.116543 86 99 140
4.571400 2.059855 4.781115 81 95 133
3.625707 3.383972 7.199988 182 202 226
4.914126 -2.814231 6.555242 55 67 90
-1.901665 1.598476 7.076476 59 70 102
4.276589 2.774747 5.292489 44 64 116
2.182781 3.828014 9.993504 50 48 56
-1.513040 1.526116 6.663269 46 55 80
-1.990534 2.355384 3.571511 50 88 103
-0.078799 2.828195 4.724785 85 107 170
-1.618415 3.123476 7.246654 53 64 110
4.585234 2.164749 4.682345 140 170 205
-2.605718 0.790289 5.546583 62 82 131
-2.436204 1.963462 5.608762 88 105 151
3.867370 2.354443 6.405976 74 90 135
3.886639 2.774791 6.104513 123 153 192
-2.703128 1.102378 5.895229 55 69 99
-1.562107 2.155842 9.187602 48 59 83
4.540076 1.364895 5.740446 19 25 44
4.598004 2.085361 5.381292 18 30 63
0.904255 1.174920 2.056280 68 76 118
-2.996862 1.541395 4.489254 84 102 143
0.550969 -0.616611 1.646493 43 52 77
2.726044 2.524041 9.922557 77 82 126
3.838802 2.252549 7.187820 137 167 187
-3.347063 1.709996 4.027637 89 109 153
3.228611 1.952111 4.163858 168 185 212
3.313151 4.016903 7.420114 74 77 114
-3.088971 1.319811 4.096793 20 28 43
0.876118 1.305623 2.178799 110 137 169
3.147439 4.448722 7.916533 70 82 125
2.339413 2.466187 11.136181 188 213 229
3.385401 4.371513 7.980504 81 82 123
-1.415465 2.204688 3.501113 97 125 190
1.883394 -1.547427 13.010067 177 210 240
4.632120 1.416499 5.394579 31 37 56
0.224778 0.715940 1.260700 41 49 76
-3.620130 1.178776 4.112142 84 95 141
4.362462 0.071520 5.645524 61 76 114
4.852543 -1.852289 5.673923 83 96 138
4.486575 1.349314 5.234077 30 36 54
3.390489 -0.291770 8.567084 75 105 139
-4.717116 2.638141 4.289388 91 119 178
2.803757 4.310990 7.845952 112 136 188
3.961461 0.126419 7.005515 80 92 137
-2.900522 0.697340 5.433416 82 117 177
4.656734 -1.910125 6.462516 78 91 131
-3.571465 1.149040 4.076724 91 105 148
4.637282 1.940403 4.754015 137 167 202
4.858684 -2.988930 6.450425 69 114 202
4.754140 -2.923111 5.975748 70 118 204
-1.862844 2.094203 3.162442 51 90 100
3.898321 2.864956 5.539750 69 71 118
4.026771 2.728645 5.090032 62 66 92
2.356677 3.305079 9.338170 93 110 151
3.368679 0.283953 7.620083 40 53 80
2.408261 0.694597 10.653868 72 87 122
-2.898356 2.032140 4.341381 94 112 159
2.317093 3.200369 10.236267 29 41 58
3.734710 3.158067 7.136553 92 96 119
4.514694 1.506220 5.627678 26 34 47
2.403297 3.288974 9.632381 147 168 202
-1.793072 3.011022 7.182752 56 74 122
-2.864484 1.837241 4.334851 86 103 152
4.728592 0.983553 4.601029 97 122 171
4.552182 -1.711187 6.336974 188 214 231
-3.143349 1.064630 4.210103 80 98 147
-0.962502 2.233392 3.638936 92 118 182
3.872259 1.562742 6.331817 101 122 170
-3.954920 -0.000921 4.432115 69 82 126
2.405668 2.686604 10.532640 72 84 129
4.338271 -2.617608 6.305749 48 59 86
3.746039 3.383468 6.192020 68 78 120
4.353310 -2.592393 5.986061 17 27 54
-3.561552 0.610902 4.166773 131 162 202
-2.511262 1.431791 2.258741 125 155 214
4.599983 2.563225 4.427093 110 132 187
4.283684 2.723967 4.878811 72 76 119
4.630657 2.003397 4.545290 144 174 211
4.344389 0.188409 6.065421 67 80 120
-3.035124 0.450766 4.517013 46 62 94
4.748003 1.203179 4.761375 50 67 99
0.883456 4.858101 8.115433 91 115 175
2.427729 4.446404 9.061378 39 43 72
4.535142 0.891849 5.116327 69 91 132
-1.217540 0.373928 9.521963 112 138 188
1.009775 0.221871 2.203539 45 64 108
4.567553 0.134322 5.398760 88 110 157
-3.059529 2.500121 4.356928 33 38 52
4.735713 0.023425 5.208051 50 64 98
-1.805699 3.030748 7.233908 56 74 122
3.914404 4.984125 8.029667 85 109 162
2.500436 -0.871118 11.040733 24 36 51
7.074957 -4.018460 9.456994 52 63 87
7.279733 -4.443485 9.165490 70 117 205
2.146108 2.467401 9.967200 33 50 93
1.854042 2.341696 12.038286 125 145 186
-2.433877 1.315136 6.096713 67 82 127
-2.209130 3.330706 5.265528 110 136 200
5.239062 -3.316806 7.998861 17 26 55
4.709967 3.064445 5.825658 41 58 104
-0.586037 4.602437 9.698069 72 94 152
3.272391 1.465225 4.227911 177 196 228
-3.608820 1.172896 4.099874 84 95 141
3.617838 2.355034 4.078258 79 82 126
2.095093 -2.904560 9.365462 22 33 65
2.292730 3.888406 10.254889 41 43 55
1.943825 4.136631 10.955983 29 31 50
-0.856356 2.602122 9.064134 66 79 122
4.251377 0.592168 5.960583 82 99 140
4.678310 2.504070 4.335192 83 88 132
2.616907 3.832415 6.442062 112 137 171
-2.704074 1.672210 5.519765 43 55 83
-3.398834 0.623251 4.207996 22 35 63
1.967207 0.770596 11.510959 53 69 103
4.520030 -0.133417 5.688120 137 173 201
-2.056827 1.144794 6.963095 51 69 118
4.675512 0.290319 5.621461 28 41 67
-2.145994 0.846725 6.988558 12 26 59
4.725596 -2.187101 6.076916 74 83 115
4.731230 -2.705066 6.312902 55 66 91
4.027956 0.148658 8.563436 160 196 223
-1.437590 2.075541 7.888246 72 85 128
2.744097 3.518581 8.453182 73 86 133
3.852544 0.889484 6.751893 64 72 113
2.678827 3.081349 8.547395 75 86 131
4.250992 2.499873 5.850391 79 76 121
4.670518 -1.389691 6.389553 162 195 228
3.559730 3.770794 8.416261 85 82 121
4.047661 -0.335974 7.183950 71 85 125
-2.713973 2.455174 4.896438 48 64 108
-3.982178 -0.096972 4.381282 126 147 196
-1.130433 2.409545 9.615313 52 62 92
-2.712950 0.394009 5.470266 114 142 199
1.536410 -0.975512 2.230171 49 58 84
-2.687750 0.675289 5.398609 104 131 187
5.366934 -3.400129 8.193212 16 26 55
2.000757 2.469662 9.698931 72 85 129
1.627438 2.408182 11.039990 83 100 138
4.452160 -0.826790 6.300051 89 119 149
-1.666358 1.911237 8.080696 52 63 95
-3.503129 1.418951 4.153237 153 183 219
-1.660154 2.451301 7.161958 94 110 157
4.382009 -1.100495 6.234369 61 93 127
4.880849 -2.120826 5.659996 59 67 100
4.515380 2.798202 5.202262 59 68 94
1.827724 -1.143210 2.509099 12 25 58
3.709244 0.100972 8.303167 151 183 214
-3.495069 2.239405 3.753722 36 45 74
0.021818 3.807801 6.666789 30 40 69
-3.003702 0.608498 4.506010 42 55 80
3.679709 2.173361 7.713079 27 36 52
-3.663463 1.857457 4.167310 98 107 150
4.634990 0.740765 5.257299 52 68 106
-3.527034 1.508378 4.117724 133 160 197
3.114131 2.043782 8.247554 59 75 111
-2.297838 0.632714 6.610065 56 85 142
-4.398431 0.091165 4.654969 83 95 137
-3.238987 1.160250 4.087149 115 135 182
4.397782 1.995352 5.146595 29 39 68
-4.306051 -0.115472 4.737246 120 140 185
4.872420 2.622093 4.507659 80 86 134
2.584992 -0.993617 11.425672 22 34 48
-1.820032 1.395589 6.209993 53 66 98
0.517258 2.845994 4.750372 87 112 170
3.419965 1.198547 7.962170 72 99 146
-4.782561 2.663225 4.318778 92 120 180
3.388150 4.039719 7.578331 62 68 97
3.629178 1.135475 7.767325 61 78 101
4.384492 -0.107387 5.689642 141 181 204
-3.310046 2.274885 3.787988 31 41 71
2.803359 3.769990 8.523591 108 129 177
3.489722 2.326845 7.997449 71 84 125
3.106144 3.922226 7.950421 82 84 129
-1.458342 1.692050 7.068901 55 67 98
-1.735207 2.338364 7.151300 107 126 171
-2.438667 1.016728 5.319120 55 70 101
3.783891 3.203014 6.267230 83 90 132
4.649276 1.691560 5.642983 136 169 186
-4.717357 2.671105 4.257334 111 139 199
5.594615 -3.996729 8.515750 69 115 205
3.057522 -1.510621 4.284262 66 73 110
-3.432312 0.977040 4.100659 158 193 226
3.984986 2.338770 5.486343 82 79 123
0.934891 0.049466 2.123599 38 54 84
-3.132588 0.416593 4.989091 72 103 152
1.108563 1.171280 2.185214 60 69 95
4.382011 1.963425 5.661029 166 180 214
2.712219 -0.307330 10.681109 169 195 225
-2.544262 0.689784 4.332023 40 52 75
2.537101 1.903922 10.102429 130 143 181
3.651435 4.037833 7.207734 85 91 134
3.602585 3.211662 7.498092 100 108 131
4.589324 0.712193 5.607835 71 104 141
3.177108 1.094203 8.263804 67 77 120
4.183330 2.826686 5.351153 23 34 75
3.610045 0.105738 7.677854 163 199 227
-3.659507 1.095828 4.138142 100 111 149
-3.339209 1.780429 4.006301 96 117 162
3.253630 -2.901022 9.009270 44 52 82
-2.895246 1.678365 4.548291 61 75 118
4.980297 -2.091419 6.253551 109 128 169
4.578617 2.209153 5.107086 117 124 163
4.490475 0.596523 5.704076 29 52 93
-2.737781 0.270642 5.018287 28 42 70
-3.395187 1.928385 3.071525 112 141 201
4.707166 1.436284 5.384867 24 32 50
0.261094 -0.474886 1.183549 70 111 203
-1.900388 1.064939 7.186396 97 118 172
-3.631218 1.843431 4.129517 98 108 150
-3.543133 1.075775 4.147242 153 184 216
-2.339876 2.290673 3.409522 49 92 87
-3.120139 2.066689 3.896598 68 81 125
2.287335 2.556431 10.013415 72 85 129
-3.656800 0.754034 4.222150 71 87 125
2.607955 4.606731 8.828228 43 46 65
-3.482451 2.229879 3.741152 36 45 74
-1.694699 3.106742 4.765517 50 86 96
3.728823 2.966633 6.479225 80 77 117
-2.791434 0.605071 4.910657 85 118 173
2.459661 -0.790456 12.038639 118 136 175
-2.146251 2.553857 3.838497 48 90 85
2.303856 -0.654698 5.593673 143 170 208
4.436162 -2.016860 5.676818 36 43 72
4.471185 2.880875 4.705619 116 141 173
2.437146 2.614173 10.792937 77 102 141
3.075815 0.696544 9.075431 47 57 98
1.059881 1.119250 2.089555 60 68 95
2.989309 -0.374040 9.661354 74 87 134
4.513649 2.302024 4.726896 70 82 124
-0.915828 1.848602 8.973030 48 59 99
-0.445219 1.390877 10.056607 78 100 152
4.016581 -0.395666 7.182052 52 70 111
4.644163 -0.278864 5.977154 71 113 174
4.440310 0.997186 5.569388 54 67 94
3.813229 0.053692 7.116136 171 204 227
2.333427 1.197422 10.218386 46 62 92
3.054239 2.553740 8.555271 48 65 98
-0.638691 2.682599 10.352309 51 61 89
4.498889 2.899111 4.734614 116 141 173
3.552176 1.757195 7.927271 59 70 98
-3.655138 1.299908 4.123815 89 102 139
2.457667 1.432433 10.727245 26 34 55
4.038283 2.822694 5.792241 95 99 150
4.417276 2.656651 4.946338 61 70 97
3.748060 0.231840 7.212325 59 74 104
-2.921862 0.660796 5.284053 81 116 173
3.610150 3.373211 6.214049 76 75 117
3.596689 -1.017137 8.657069 170 199 230
5.064309 -1.875167 5.917482 90 105 146
2.393252 0.885361 10.501215 65 80 129
3.450960 -0.696247 8.357861 175 208 239
3.455848 3.412549 6.686373 164 195 214
2.352486 0.441500 11.461910 118 151 192
3.172433 4.412480 7.996408 75 86 129
4.348056 -2.133868 7.530045 101 108 152
4.568747 -0.136103 5.975195 144 182 208
-2.517037 2.029214 5.243364 29 42 67
-5.617166 0.181536 5.445521 146 173 219
4.095986 2.485978 6.287986 145 173 216
-2.346450 2.043657 3.045340 49 89 104
-2.950842 1.679337 2.667028 105 132 196
-4.582276 0.042744 4.845679 82 96 140
3.383230 1.010340 4.279742 17 24 50
2.726382 3.630039 8.722047 67 78 121
4.381233 0.213563 5.785798 88 109 156
-2.922136 0.249276 5.050401 111 142 196
-2.003254 2.666684 6.936569 50 62 91
-2.223279 1.696192 2.581372 120 150 212
4.715791 0.585033 5.339391 107 130 181
2.116788 5.333162 10.372184 44 42 51
2.973811 3.044243 8.400822 132 158 202
4.415564 2.598151 4.639453 76 84 124
1.073218 -1.544838 4.763342 21 33 64
-3.987760 2.035119 4.121904 86 106 161
-0.756359 1.993220 7.731813 51 61 90
3.308572 1.966368 4.104327 30 34 52
-3.819985 2.165929 3.458521 108 135 195
2.811110 -2.865507 8.378114 23 35 66
3.294382 0.221292 6.645016 55 68 96
4.482475 -0.367638 6.102292 165 203 235
3.545520 -3.445740 10.750114 40 50 80
-3.145304 0.169693 4.964255 34 50 93
-2.290648 2.727770 4.094224 52 94 89
3.956177 1.087189 7.320242 111 131 175
-2.257351 1.518515 4.330410 116 135 184
5.047837 -2.252829 5.985207 64 71 105
-3.100711 0.278872 4.951552 41 59 109
3.380073 0.294536 8.529267 82 102 146
3.378002 -2.924232 8.071825 29 41 72
-2.781391 1.862562 5.338536 115 135 182
4.605615 -0.036815 5.536654 44 61 95
1.270869 0.543795 1.969228 50 65 92
4.921288 2.191669 4.733075 146 168 213
-1.249216 1.309035 6.334477 45 61 107
-1.371469 1.071954 3.072121 34 51 97
3.782797 3.095558 6.264894 84 93 139
2.922211 -2.607856 8.089933 44 52 82
-3.116314 1.293172 4.287694 25 30 42
-2.862979 1.457803 4.345894 86 102 148
0.913492 3.292438 5.551830 73 93 140
-2.288102 0.637582 6.582150 56 85 142
4.643880 -2.957617 7.389061 40 50 78
3.493985 -0.187142 8.453137 188 221 244
3.561725 0.978497 8.183541 48 71 121
3.348770 -3.395464 9.990861 23 35 68
-3.148425 2.854633 4.738812 84 107 165
3.362137 1.398191 4.242691 14 23 51
3.649960 3.401168 6.110522 75 83 123
-1.865316 2.097900 3.165827 53 92 98
2.378201 -3.170506 10.692661 49 60 90
3.963836 0.320321 6.402873 51 63 102
1.984699 2.943593 11.131445 67 80 126
5.911924 3.650813 6.839757 46 54 76
-0.915839 3.233450 8.457295 36 44 74
4.533056 0.164947 5.111134 92 104 145
-2.419647 1.201268 2.062207 49 58 100
-3.711127 4.632782 7.821587 62 75 119
3.690685 2.499515 4.665916 60 65 91
-2.914498 2.423799 3.780852 112 141 201
-2.943702 -0.144155 5.126856 108 138 192
-2.977721 2.018179 4.489389 81 98 146
4.706332 2.046264 4.514119 152 171 220
4.920955 -2.199133 5.834021 66 73 107
1.031656 1.068838 1.965710 73 81 119
-3.297529 1.679701 3.970012 88 109 152
-2.582567 1.817470 5.065662 52 67 115
4.142620 -0.738696 7.352932 87 98 143
-2.986128 0.201762 5.034542 122 154 204
-2.221060 0.350070 6.752221 96 122 180
4.176771 -0.216623 5.773431 149 184 218
2.411100 3.529904 9.479171 93 112 151
-2.889435 0.348118 4.860581 42 69 124
1.963982 2.826848 4.551188 89 112 164
-2.242808 3.351111 5.785386 51 63 97
4.682945 0.473998 5.144826 83 96 135
3.863252 1.360441 5.843823 87 110 159
-3.756043 -0.200478 4.301268 70 88 132
1.268981 0.541517 1.966964 50 65 92
-2.429012 1.207079 2.069395 52 57 101
-2.191595 0.632292 6.306608 44 71 128
-3.595636 1.187470 4.136946 82 96 139
-3.316643 2.692835 4.209458 119 149 209
5.864657 -3.818292 9.395823 15 27 57
3.952857 0.599385 8.214197 70 93 143
-2.963566 1.424368 4.451194 101 118 161
4.181067 2.303395 5.871121 90 86 128
-2.476683 2.551450 4.081653 108 136 197
3.929783 -0.237704 7.613383 42 69 109
0.191950 -0.408835 1.149830 40 52 76
3.056525 3.625311 6.845000 46 55 89
-4.637149 -0.694786 4.851875 74 91 137
2.191115 -1.569185 3.397208 70 116 204
-3.224069 1.837250 2.911919 105 133 195
2.267972 -2.005363 3.031903 79 133 214
-2.941763 1.382005 4.628953 56 70 115
-5.682359 0.217416 5.323027 87 100 148
-2.950967 1.423421 4.388092 89 102 139
4.556042 2.094546 5.133336 132 142 171
3.555706 2.113644 7.980403 72 88 126
-3.344919 2.121197 3.696890 34 47 93
3.152667 3.368320 6.386952 24 37 74
-4.113634 2.622788 4.425989 71 62 102
4.005776 -1.984034 6.934659 94 101 145
-0.676069 1.865108 9.493878 56 70 110
-2.215134 1.105425 1.883880 38 49 82
0.355264 -0.471805 1.212750 17 26 53
3.901706 3.103380 5.812049 119 145 201
1.676561 -2.248986 7.484319 47 58 87
-1.356352 1.212339 7.832973 43 57 90
-2.042088 2.193856 3.275083 53 94 91
-3.645507 2.497487 4.176656 47 58 88
-3.594373 0.203292 4.205468 82 96 139
3.561415 3.283660 7.408084 99 102 123
3.281126 -2.842793 7.839304 29 41 72
-3.578944 0.629969 4.184872 128 158 200
-2.970180 1.881865 4.416643 84 101 144
-2.548764 1.431466 2.292440 90 118 179
4.432816 0.917754 5.489334 73 92 129
4.557824 0.170464 5.752359 84 108 154
4.669702 0.482136 5.122269 92 104 143
3.550028 2.192462 8.459991 87 101 148
3.239937 1.695146 7.475552 45 53 82
-1.974616 1.722051 2.560920 50 91 96
3.937901 2.748303 4.945635 80 82 125
-4.684807 2.646031 4.459869 28 36 55
4.238175 -2.097648 7.337103 105 113 156
4.658634 -1.327303 6.412660 144 180 210
3.537715 2.788078 6.271598 77 76 115
1.193019 0.521598 1.935532 39 55 84
1.462122 -1.480208 4.331917 43 53 81
5.359989 -3.758791 9.265978 17 36 87
-1.957903 1.707216 2.539476 50 90 96
3.749858 1.370006 7.498416 62 83 120
2.811883 4.677645 8.110892 101 124 171
-3.807103 2.355466 3.732972 107 136 198
-2.109214 0.524918 6.945908 39 55 88
3.107871 3.705184 6.951422 59 66 95
1.095015 0.567226 2.090153 45 56 83
-2.968812 1.658905 2.676912 93 120 180
0.792195 0.816981 1.740985 166 179 210
-1.782800 1.428525 2.247141 108 138 197
4.353714 0.801640 5.539337 75 99 149
2.724414 2.905984 5.522339 30 44 82
-2.536530 2.568744 4.336696 67 83 126
4.805589 0.698112 5.198771 61 73 114
-3.674832 0.842806 4.172504 109 119 157
-3.411793 0.624514 4.224190 18 31 59
1.811868 3.885404 10.207256 34 34 48
3.544043 -0.194253 9.061198 74 94 135
3.328611 -0.095126 4.320700 146 184 214
4.324161 -1.503292 7.186263 71 84 128
-2.881752 1.610558 2.598198 97 124 185
3.253758 -2.812395 7.776725 29 41 72
-2.402880 0.535892 6.255188 40 60 107
0.950609 0.944937 1.883980 193 217 227
-3.214109 0.867287 3.841931 107 138 167
-2.523120 0.442438 6.650826 27 47 89
-2.160353 2.612990 6.547470 31 45 82
2.405479 0.728043 10.640874 71 86 126
3.958828 3.154553 5.580509 72 78 122
0.413091 -0.517839 1.513131 45 58 86
2.146981 3.127369 9.521569 27 41 62
-0.553851 3.300923 8.628285 23 33 64
2.499983 -2.176618 5.969859 27 40 71
4.899697 -2.160754 5.882679 44 52 83
1.215636 0.851170 1.866907 137 164 204
-5.819995 2.866911 4.973638 37 47 81
-0.440962 0.092263 1.046229 21 37 68
3.584730 1.511516 7.013867 47 59 87
2.063536 -1.696105 4.469287 23 32 59
-1.879236 0.951593 6.092673 68 92 149
1.311847 4.132587 7.374673 31 38 57
-3.738990 1.529446 4.217138 90 100 144
-2.878104 2.210290 3.394336 104 135 195
-3.551906 2.255240 3.692504 47 56 96
-4.466409 2.537061 4.243311 27 35 53
3.119418 3.477045 7.781529 87 85 130
1.183829 0.698985 1.874567 149 181 216
-2.729166 1.170455 5.053278 70 88 135
3.091908 1.884306 8.197079 51 67 105
2.066533 -1.823597 4.933025 28 39 71
2.549093 -0.649055 11.120630 22 35 51
-1.480418 0.789545 9.302407 28 45 87
3.860096 -2.051153 8.285174 71 86 133
0.946873 0.676332 2.173093 60 82 118
-1.451356 1.132955 7.120720 47 62 96
-2.071192 -0.773097 2.388526 105 156 186
3.492341 1.171707 6.972334 62 90 143
3.759531 1.569399 7.155297 67 79 112
-0.982496 4.441343 9.362497 84 109 165
-2.331048 2.283693 3.395176 51 95 87
-4.334984 2.320285 4.087200 67 75 94
3.630352 2.481201 7.844960 112 151 176
-1.191647 1.149148 5.673979 53 68 114
2.919977 1.770755 7.744712 51 68 105
-2.862170 0.289227 5.246650 32 47 78
0.899589 -0.937827 2.701022 36 48 76
0.514681 -0.520346 1.797226 58 67 105
-2.379983 0.742730 4.290547 53 68 96
3.385233 2.291558 4.280325 60 64 92
4.946596 -0.787600 5.331778 68 82 125
2.961048 -1.592221 6.352499 61 77 124
-4.421927 0.054623 4.675145 88 101 144
-1.201429 1.152200 5.722742 53 69 115
-0.332097 0.073105 0.859833 30 45 78
-2.760400 1.880340 2.863237 95 126 192
1.911862 1.936808 11.921312 76 95 133
2.784084 3.932240 6.908460 54 68 106
2.707087 1.848806 10.639891 97 107 148
3.837450 -0.147218 4.751030 94 133 174
-0.082223 3.077549 4.866316 53 87 97
1.007115 0.679878 2.186679 112 151 174
4.487545 2.797189 5.413009 81 111 159
-1.352736 1.486061 2.955395 53 67 114
0.287311 -0.345597 1.531920 92 109 152
3.602124 3.311434 7.199685 147 166 190
4.532044 1.464779 5.662698 25 33 46
-3.585276 0.616661 4.194394 130 160 200
2.513644 -2.023883 5.116660 18 36 77
3.535111 -1.323558 9.328873 74 91 126
-1.998417 3.200720 6.904905 55 74 113
0.487455 1.170355 2.066281 45 57 89
1.216358 0.485280 1.875111 52 69 99
3.116120 2.030449 3.853785 20 35 78
-3.036775 0.669746 6.364412 86 113 165
-3.865397 2.162229 3.836069 46 61 104
3.431156 2.743783 4.582031 161 184 211
-2.772024 1.888414 2.875143 96 127 193
-0.851786 0.360310 1.981416 34 46 72
-3.531525 1.993441 3.191377 106 135 193
3.705537 1.561659 7.250373 47 60 88
2.721051 -2.373767 6.496928 23 34 66
0.944194 -0.222070 2.293678 172 205 235
-0.708079 0.555487 0.753431 67 97 118
0.909688 0.369348 2.183019 68 83 122
3.545861 1.832452 7.677142 54 67 95
-4.395004 0.057647 4.646221 88 102 145
3.939597 2.472391 5.350864 81 76 116
-0.515706 1.729689 2.820450 84 111 166
-1.979361 2.275630 6.650398 30 46 84
-2.395266 1.633839 2.524556 108 138 198
-1.519459 1.367128 3.058984 62 79 115
4.257817 2.938118 5.217829 88 86 126
-5.414727 2.806988 4.890813 43 52 80
0.982950 0.465650 2.289834 62 78 115
0.437292 -0.849308 2.676419 40 53 79
3.249496 3.805465 6.828204 90 95 137
4.475189 -0.247328 6.004665 106 143 190
2.832522 2.972838 10.027075 62 68 110
-3.196044 2.024691 3.325674 40 50 81
-2.759355 2.104755 3.204040 125 157 217
4.337775 2.047430 5.647897 69 84 118
0.451870 -0.870933 2.761252 39 50 77
0.541894 0.068496 2.658480 138 172 210
-3.056887 0.121384 4.127645 51 80 157
4.220816 -0.289511 5.537898 113 154 201
3.930665 -0.316576 5.314527 123 161 206
-2.852851 0.398803 5.213125 34 51 80
3.649280 1.527168 6.953047 73 83 116
1.316395 0.717366 1.869327 85 83 128
2.631342 -1.888034 4.123555 72 117 207
3.685525 3.021168 6.101498 81 92 138
-1.869129 2.348840 3.683611 117 145 206
-2.554722 2.168433 3.194777 55 94 105
-2.217133 1.778489 2.792810 108 139 196
-0.817497 2.894179 7.541321 36 45 73
1.880403 2.386023 10.234383 117 152 183
-1.420274 1.136847 2.813040 40 55 93
0.415738 -0.110198 2.754757 132 167 210
-3.438672 1.831014 4.052620 142 167 211
-2.781615 1.730092 2.720089 110 140 201
3.394884 -3.184049 7.286951 121 161 202
0.503706 0.756702 1.249950 105 131 168
0.954109 -0.300484 2.301558 174 204 235
-1.454349 -0.251610 1.277164 100 142 173
-6.221738 -3.998218 5.553176 62 108 154
-2.527005 2.595757 4.170230 93 119 180
-1.411840 1.418046 2.973118 80 108 168
-6.118850 0.327773 5.751720 88 101 145
-2.838679 2.364099 3.679994 115 144 205
3.408919 1.423415 4.241693 31 39 61
6.411380 -4.104620 10.358766 40 50 75
-2.942630 1.880808 2.906311 105 135 199
1.212189 0.751202 1.957443 136 165 201
-3.614778 2.057776 3.431041 36 47 74
-3.292863 2.239012 3.418921 98 129 195
-2.800255 0.614281 5.178236 128 164 208
3.165894 2.063650 3.914958 21 35 78
-2.239873 1.815408 2.841189 108 139 196
4.944464 -0.830550 5.637054 170 202 233
-1.745020 2.725512 4.309589 104 131 196
3.355832 -0.112030 4.224737 140 176 210
1.979366 3.405623 11.071011 18 28 45
0.371381 0.645970 1.586391 44 52 75
2.157620 -2.549456 3.687100 232 251 245
0.946697 0.308353 2.212857 83 110 158
-0.675657 -0.562872 2.427588 53 73 118
-0.430155 0.317593 0.617502 39 49 78
-3.246954 0.344734 4.657808 87 119 169
2.774168 1.336412 5.635166 64 77 105
-5.488644 0.397168 5.284909 124 153 199
-3.365761 1.356761 3.992045 152 181 218
-2.914584 2.474701 3.644116 51 90 103
4.881210 -1.928193 5.523504 88 105 148
-4.481887 -4.085079 5.806011 52 100 145
0.498481 -0.399508 1.372403 81 92 138
-0.657908 0.177988 1.708473 23 38 78
4.771162 0.933908 4.978136 76 96 145
3.499788 -0.452357 8.481379 165 199 224
-2.159564 1.530082 2.108366 106 132 192
-5.204098 3.520489 5.417684 104 135 200
-2.366000 1.632864 2.537806 115 144 203
2.681806 -1.204863 3.217248 37 43 73
0.490717 -0.389671 1.364179 84 97 144
2.775616 1.694941 7.357483 52 68 104
5.144414 -0.259732 5.956881 121 156 201
0.796882 0.637127 2.289203 58 74 108
3.054926 -0.684424 4.233232 159 185 213
4.725462 0.597568 5.355325 113 137 186
0.583123 -0.579714 2.032778 58 67 104
1.108349 -0.551843 2.224764 148 176 187
0.341020 -0.348685 1.434494 79 96 143
-3.058692 0.557088 4.443516 60 78 113
-5.167613 2.882897 4.662740 94 123 183
-0.837703 0.287159 0.719449 116 137 188
-4.170983 3.328915 5.267078 118 147 206
3.634381 2.425312 4.018813 165 186 209
2.764616 -2.664052 11.946810 93 106 153
-4.220195 -2.562066 3.776642 122 184 204
-1.363088 0.872841 8.800605 28 45 90
1.150584 0.407884 2.325863 59 78 113
3.342531 2.082052 7.959371 92 106 154
3.486436 3.207746 6.967150 166 183 208
-0.196123 0.827818 3.181442 51 63 96
-1.579443 2.356860 4.077794 56 69 107
1.026978 0.340379 2.228751 86 118 166
-2.069252 -0.772594 2.386118 105 156 186
2.081836 0.961749 10.277887 47 63 110
4.849485 3.356209 6.104221 79 83 125
-2.949979 0.115229 5.049708 111 143 199
-0.486193 1.775626 3.237353 50 59 96
-3.731362 -0.299051 4.309293 78 94 137
4.929095 -1.364936 6.037603 45 71 115
4.600987 -1.117267 6.169434 15 30 53
4.738156 2.472523 4.390532 68 71 114
2.545539 -1.765720 11.319395 27 41 58
3.595564 0.474556 7.341888 101 122 172
2.849993 -1.296406 11.290467 174 201 224
-4.275202 -1.729196 3.691179 126 182 217
-3.045123 2.424525 3.849325 118 147 206
4.039606 2.869308 5.830247 100 109 161
-3.997203 2.434252 4.008514 38 47 83
6.452892 -7.490649 11.302506 235 251 244
2.176211 2.366810 9.634051 81 102 135
1.071647 0.099016 2.211244 65 86 134
0.724515 1.387330 3.166726 50 55 77
-2.912852 1.799846 2.857910 111 139 198
-4.733188 -0.404341 4.720640 79 95 138
3.951485 3.147765 6.864199 79 77 117
-0.049276 -0.484594 1.945013 66 72 115
3.314717 -3.869605 5.681732 233 251 244
5.009449 2.076818 7.695273 51 66 94
2.416435 -0.422913 11.943845 127 148 191
2.887920 -3.367378 4.952431 232 251 244
3.276398 -3.811076 5.625730 233 251 243
2.915781 -1.069630 6.371710 17 37 73
-3.757352 0.164308 4.313957 90 97 139
4.078231 -1.097183 8.009331 48 61 86
4.505779 1.005166 5.168805 66 75 102
3.538161 -4.125756 6.067828 234 251 244
3.441426 -2.856046 7.454619 37 55 86
2.779977 -2.312481 6.020214 38 55 84
0.365528 0.600342 1.450793 181 202 226
3.006473 -3.516999 5.149466 233 251 245
0.837812 0.277635 2.182411 72 85 128
3.016608 -3.533186 5.164857 232 251 245
3.625083 -4.230139 6.214953 234 251 244
0.776935 1.120049 2.825865 53 60 91
-6.697891 -4.309223 7.222753 152 204 219
4.357634 4.411864 8.045195 73 78 118
-1.753824 -2.681538 12.223152 43 51 81
1.403572 4.387664 7.909928 31 38 57
-0.449162 -0.275997 0.999779 155 189 225
-3.282025 -1.526030 7.631958 113 137 154
-3.020556 -1.391016 7.020196 116 139 153
-0.791110 -0.425547 1.816472 112 136 153
-1.005079 -0.528675 2.316112 107 131 154
-0.842338 -0.452633 1.933758 107 131 155
-4.366742 -1.995294 10.111636 152 185 217
-0.829017 -0.439881 1.908618 116 140 158
-0.873884 -0.468197 2.007076 105 131 155
-0.915024 -0.483347 2.107612 112 132 149
-0.483409 -0.288717 1.084826 114 147 171
-0.860918 -0.454783 1.983508 119 142 155
-0.860420 -0.450934 1.985372 118 142 154
-0.483099 -0.284519 1.089024 109 134 152
-1.423235 -0.701623 3.310550 116 138 149
-0.871459 -0.455936 2.011392 119 141 154
-1.389302 -0.680968 3.233200 118 140 151
-0.917379 -0.477535 2.118984 124 146 162
-1.235528 -0.617775 2.869766 118 139 153
-0.903753 -0.471569 2.086708 117 140 155
-2.034394 -0.977014 4.739543 117 139 152
-1.004776 -0.515554 2.325975 123 145 162
-0.626186 -0.348352 1.428993 118 140 154
-1.235421 -0.614850 2.871012 118 139 153
-0.993589 -0.511114 2.299195 118 141 157
-0.984984 -0.507303 2.278874 121 143 160
-1.218011 -0.607264 2.830013 118 140 155
-1.261444 -0.635943 2.926905 114 136 151
-1.405339 -0.701385 3.264754 116 137 150
-0.747689 -0.405629 1.714082 108 133 152
-0.689477 -0.376599 1.579093 119 140 154
-0.704767 -0.383173 1.615572 116 139 153
-1.227259 -0.621272 2.846020 115 137 152
-0.934903 -0.488657 2.157725 121 142 157
-7.021101 -3.094776 15.897226 135 173 216
-0.697177 -0.380318 1.597067 116 138 152
-6.658390 -2.954876 15.167590 138 174 215
-1.513757 -0.749450 3.519656 115 137 150
-0.551252 -0.314384 1.251649 113 136 151
-1.292935 -0.642590 3.005085 118 139 152
-0.635500 -0.352122 1.451486 117 139 152
-1.000690 -0.188094 1.138549 137 176 220
-2.382471 -1.141014 5.550224 113 137 152
