ply
format ascii 1.0
comment author: Alexander Kryvonos
comment object: reconstructed scene with color
element vertex 272
property double x
property double y
property double z
property uchar red
property uchar green
property uchar blue
end_header
1.887772 -1.172621 3.578875 119 30 61
1.968854 -1.221839 3.532562 138 47 78
0.835295 -2.585801 5.052423 190 74 30
0.807637 -2.751778 5.084745 191 184 177
0.624897 -2.297613 4.976428 193 190 180
0.050148 -2.365872 5.033563 144 143 136
0.003728 0.101723 2.322040 64 34 24
-1.512780 -0.174593 2.177933 190 179 158
0.637260 -2.800215 5.081648 162 162 2
-1.671674 -1.302282 3.906487 138 162 159
0.005959 -2.454960 4.947270 200 196 185
-1.367508 1.157757 2.021460 67 67 49
-1.640712 -1.336464 3.894848 139 162 164
0.919855 -2.450622 5.031776 192 188 177
-0.376690 -1.322399 4.833346 166 57 28
-1.339381 1.062128 2.273556 72 100 40
-1.225386 -1.661923 4.229822 87 129 148
-1.216903 -1.634069 4.224311 83 121 144
0.022107 -2.378657 5.066742 159 155 149
0.077357 -0.086954 2.309417 91 36 32
0.107572 -0.220071 2.241255 90 32 30
-1.356451 1.064160 2.089279 210 214 209
0.609984 1.231628 2.168197 48 52 34
-1.335391 0.576250 2.305703 173 160 119
-1.298832 0.530407 2.317562 174 167 125
0.070781 -0.063127 2.299082 90 36 31
0.336515 0.572861 2.100554 38 24 14
-1.483974 0.442353 2.206927 196 51 42
0.029743 -2.254490 5.025243 63 172 129
0.044708 -2.464267 5.021330 197 192 184
1.357366 0.000662 2.370092 221 225 224
0.589898 -2.296669 5.011164 184 180 174
0.385126 -0.387940 2.221950 201 200 172
1.753753 -1.183694 3.498793 160 48 92
-1.516054 0.905427 2.199305 208 193 179
1.085084 -2.990391 5.104251 173 165 164
-0.271732 -1.189015 4.884524 166 160 151
1.259849 -0.064052 2.373643 206 211 199
0.725350 -0.433156 2.581857 216 217 216
1.799155 -1.216782 3.585792 165 53 97
0.258592 0.571894 2.011469 33 19 6
-1.431603 0.678817 2.193152 194 177 157
-0.372392 1.108596 2.006281 59 62 4
-1.161208 1.117708 2.153934 191 201 183
-1.192514 1.127970 2.181680 193 203 185
0.041988 0.658100 2.326484 29 19 7
-0.131586 -1.139114 4.828168 158 154 141
-1.451005 -0.127279 2.181810 202 111 7
-1.848172 -0.964718 3.767529 138 143 133
-1.805554 -1.347221 3.859547 122 131 79
1.549560 -3.014308 5.155264 184 177 169
1.200767 -0.375176 2.556475 146 63 62
1.954200 -0.756888 3.296859 194 80 129
1.366510 -1.497417 3.527432 128 36 62
-1.499098 -0.598640 3.851939 132 117 59
-1.386611 0.472858 2.254434 177 151 3
1.447039 -2.910219 5.146545 67 143 190
-0.134759 -1.425890 4.782502 191 184 174
1.551504 -1.267751 3.565915 204 76 129
-0.097296 -1.559752 4.956423 172 168 158
0.915795 -0.006751 2.131750 157 65 71
-1.156718 1.081641 2.302894 42 61 59
0.010082 0.151880 2.423815 62 35 24
0.136832 -0.342133 2.197368 86 32 30
-1.501146 -0.064450 2.186068 183 168 147
-1.195689 0.522144 2.602844 208 207 206
1.891602 -1.535342 3.645985 191 187 176
-1.281231 0.461660 2.333428 182 152 2
0.769077 -0.386554 2.568667 224 225 229
-1.453884 0.524444 2.172434 194 190 168
0.427101 0.548821 2.117968 37 22 9
1.769977 -1.133346 3.574415 88 22 43
-1.338544 0.446055 2.268135 177 161 3
-0.280354 1.157728 2.033958 199 20 33
1.188214 -1.710122 3.598185 244 114 178
1.040503 -1.783490 3.664848 160 38 86
1.319309 -0.102664 2.385904 138 59 57
-1.708770 -1.391544 4.056528 139 162 164
0.152393 -0.328777 2.228872 77 33 27
0.205546 0.592836 1.964007 102 165 53
-1.442952 0.070583 2.189656 190 81 6
-0.414303 1.079270 1.981296 115 115 3
-1.321611 0.570588 2.293701 173 159 120
0.577735 -2.465659 4.975243 169 168 159
0.870544 0.017113 2.156234 143 58 63
-0.159345 -2.189376 4.916752 190 188 174
1.563523 -1.217174 3.512157 207 77 134
-1.323410 0.732214 2.195828 195 169 151
-1.695002 -0.008784 3.743934 86 94 129
0.319094 0.614610 2.013752 135 192 81
0.267412 -0.163394 2.245249 65 31 30
0.721430 0.140323 2.180964 65 29 26
0.357493 0.638790 2.021187 129 188 63
-0.253075 1.119777 1.975585 199 18 31
-0.344795 1.057885 2.013186 63 203 37
-1.425386 0.598536 2.199330 62 130 18
-1.459000 0.261781 2.238942 181 149 22
1.022843 -1.494009 3.643414 195 187 182
1.493984 -1.182807 3.542235 209 78 136
0.838065 -2.673970 4.836416 172 170 162
0.422577 0.545095 2.121999 37 22 8
-1.499168 0.751972 2.166694 191 178 158
0.899930 -0.299557 2.464023 226 228 234
-0.375266 0.880994 2.017004 27 135 9
-1.161222 0.498071 2.582036 177 175 157
0.238495 -0.245314 2.227142 68 32 28
-0.577820 1.056918 2.216350 165 177 7
1.046499 -0.414360 2.640606 108 128 83
0.290869 0.710780 1.986779 34 75 12
-1.231620 0.824916 2.135016 87 173 55
1.196296 -1.344519 3.526804 144 30 73
0.859923 1.265590 2.250503 41 26 15
0.041989 0.656976 2.335006 30 19 7
-0.814933 1.176079 2.122780 42 54 28
-1.241248 0.709706 2.363319 160 151 119
-0.588304 1.141333 2.224407 156 163 3
0.237837 -2.657928 5.042241 64 140 185
-0.363792 1.167777 2.022111 155 153 111
0.727873 1.007333 1.748838 38 28 13
0.556922 -2.975679 5.184539 105 178 145
-1.524202 0.630355 2.164043 204 46 45
0.952613 -0.125796 2.318221 224 226 231
-1.268693 0.379318 2.337804 187 191 60
0.391222 0.590348 2.021378 111 172 66
-1.511344 0.654783 2.201432 62 124 21
-1.323641 0.024214 2.283066 205 72 14
-0.564209 0.660061 2.280662 253 107 35
-0.866158 1.025001 2.188983 53 179 34
-1.448579 0.415793 2.236834 182 172 144
0.053112 0.765403 2.195569 61 210 45
-0.000762 0.798788 2.230540 76 215 61
-1.243571 0.478861 2.357682 191 158 4
-1.173424 0.762475 2.271858 81 218 60
0.720793 0.440374 1.727726 147 209 79
-0.126935 0.675004 2.261851 201 23 25
1.338149 -0.527653 2.688168 175 59 109
0.283297 -0.112686 2.278680 67 34 24
-1.295239 0.437786 2.514461 202 203 40
-0.809940 0.991058 2.233452 65 222 48
-1.144259 0.700255 2.442259 151 173 129
0.059272 0.759809 2.173000 58 208 44
-0.870481 1.195768 2.177159 47 57 31
-1.486156 0.369053 2.176036 210 74 61
-0.069995 0.688503 2.283912 54 188 40
-0.361025 -1.831449 4.856216 143 157 136
0.729128 0.415007 1.786419 103 173 20
-0.578246 1.118447 2.203693 157 164 3
1.439545 -1.545786 3.379434 154 60 89
1.046400 -0.224999 2.402815 134 132 106
0.633464 0.345537 1.739325 144 211 77
1.248736 0.309771 2.193353 131 194 81
0.931995 -2.978396 5.077947 177 170 168
0.899922 0.731257 1.760630 69 123 30
-0.393364 0.096874 2.351370 67 35 25
-1.314224 0.060927 2.298922 204 69 20
-1.194978 0.233039 2.389238 114 76 31
0.903123 0.753926 1.768722 69 121 32
-1.451254 -0.158320 2.209619 208 99 9
0.959318 0.602031 1.813249 87 142 45
-0.075744 -0.017591 2.333355 218 212 208
-1.493313 0.562872 2.131261 211 55 52
1.654234 -0.795901 3.436097 242 87 159
0.793681 0.834413 1.799165 61 122 13
-1.446293 -0.155003 2.202015 207 98 8
-0.236435 -0.851274 4.765876 183 176 165
-1.379097 1.082502 2.350019 77 112 31
0.267099 0.804303 2.092374 86 147 65
0.978883 -0.244077 2.463251 203 205 199
-0.825389 1.012923 2.242663 58 213 42
-0.089340 0.857170 2.210091 15 116 11
0.052638 -0.307072 2.219745 179 170 162
-0.412352 0.885362 2.065363 29 141 9
0.332939 0.962120 1.923625 59 109 24
-0.828645 0.933508 2.298086 16 113 13
-1.166375 0.332329 2.905735 50 46 34
-0.864498 1.051733 2.099085 69 161 46
0.813965 -1.039789 3.121627 122 31 56
0.577945 0.346991 1.814546 52 23 16
2.122829 2.888170 4.897430 145 154 126
-0.888442 0.515086 2.510935 66 46 37
0.526066 0.352623 1.825711 46 22 17
-0.021114 0.917847 2.226173 56 202 40
0.965600 -0.067598 2.175527 225 228 234
-0.310360 -0.021050 2.333982 221 217 213
-1.198003 0.602779 2.341366 167 164 21
1.500458 -0.337005 2.558002 143 62 59
0.760122 0.384254 1.732629 147 211 85
0.630227 0.880198 1.939958 49 96 15
0.303688 0.476505 1.999312 42 24 14
0.536360 0.354750 1.863611 44 23 16
-0.094859 0.257969 2.635024 186 179 172
1.469220 -0.087078 2.406695 105 120 81
-0.333232 -2.482168 5.264677 155 152 146
0.999169 1.364071 2.296460 162 170 140
-0.139625 1.139352 1.993044 115 15 26
0.566527 -0.834393 2.768697 189 182 173
-0.268385 0.981321 1.989105 36 160 21
-1.447488 0.521912 2.162934 194 190 168
0.450356 1.218212 2.160792 57 61 45
-0.077203 0.796823 2.211972 24 141 16
0.077593 -0.422265 2.424341 177 172 162
0.858808 0.907886 1.852841 37 22 3
-1.491858 0.431499 2.135269 191 128 102
0.351268 -0.354543 2.026604 200 201 175
1.127605 0.317066 2.173085 70 80 46
0.824736 1.137899 1.984995 41 27 15
-0.101380 0.238141 2.427700 184 177 169
-0.809447 0.991464 2.200069 58 212 44
-0.209440 -2.711285 4.802718 197 188 183
-1.253323 0.464794 2.312295 185 153 3
0.834445 -0.590087 2.538306 218 80 144
0.052145 -0.300007 2.217188 183 175 166
-0.408225 0.953141 2.194210 29 138 9
1.455177 -2.725048 5.050927 197 191 185
0.556829 0.909687 2.018356 46 86 14
0.563224 -0.830725 2.751047 189 182 173
-1.323369 1.043274 2.248154 68 105 37
0.365261 0.977426 1.943974 56 108 18
1.222244 -1.609194 3.459848 234 108 166
0.516198 0.762094 1.350003 53 32 16
0.651358 0.619991 1.716752 65 98 25
-0.205701 0.845679 2.005437 81 199 57
-1.012930 1.208182 2.092445 187 200 176
-1.098578 0.772067 2.641480 134 155 115
0.927896 0.440456 1.812918 123 185 73
0.609894 0.721121 1.804985 32 61 8
-1.126259 0.691014 2.403416 151 173 129
0.820517 0.506491 1.704118 58 47 16
0.936824 -0.331758 2.402349 122 142 99
0.482972 0.693864 1.948307 89 151 34
1.364719 -0.401571 2.741649 181 190 156
0.343284 -0.347066 1.980578 200 201 176
-1.214047 1.752042 3.162322 39 50 26
-0.085661 0.226750 2.390577 186 179 170
1.207110 0.389491 2.087293 48 89 6
-1.244512 0.695416 2.214609 62 119 18
0.204828 -2.040915 4.907809 171 167 158
-0.442435 -1.507810 4.800284 146 78 72
0.810778 0.685839 1.760139 60 64 13
-1.602971 0.108914 3.680531 109 69 38
-0.198508 0.638261 3.279735 159 154 143
-0.303281 -1.032178 3.291022 152 111 99
0.015468 0.507380 0.881242 150 169 135
-2.049423 3.577462 6.134101 172 185 157
0.436870 0.821487 1.969793 80 137 32
-0.273212 -1.437674 4.062942 175 61 26
0.720136 0.599878 1.890033 61 45 13
-1.375446 0.335561 2.139599 188 175 146
-0.079579 0.611060 2.431736 42 22 16
0.941316 0.393916 1.851400 50 105 19
-0.665527 1.983918 3.584210 74 76 6
-0.738946 0.951434 2.099679 54 207 37
-0.136063 0.722194 2.424442 199 26 28
0.333956 0.959887 1.936076 56 108 24
-0.696574 0.894924 1.980639 55 206 34
0.925461 -0.430411 2.187196 126 96 89
-0.218292 -1.014321 4.750804 183 176 166
-1.202162 0.681228 2.290292 160 150 118
-0.248448 -1.256548 4.215245 169 164 155
0.514042 0.520553 1.758703 102 165 54
-0.156422 0.546682 2.595161 160 154 142
-0.102711 0.643197 2.516530 46 22 17
-0.110384 0.699519 2.712128 46 23 18
-1.539286 6.580273 11.708499 123 34 15
0.715467 -0.393673 2.037873 195 197 179
0.504578 0.651569 1.677122 84 143 35
1.405449 -0.520645 2.945685 142 164 116
-1.366800 0.819636 3.221063 167 177 148
-2.708068 -1.400929 5.521049 140 141 128
1.379258 0.029220 2.384854 223 227 229
-0.186486 -0.863214 4.058103 184 176 167
0.397154 0.173084 2.254680 60 28 27
