ply
format ascii 1.0
comment author: Alexander Kryvonos
comment object: reconstructed scene with color
element vertex 342
property double x
property double y
property double z
property uchar red
property uchar green
property uchar blue
end_header
-225.571295 -613.859699 1321.211626 57 86 31
-87.887967 -174.889896 1072.626754 197 180 167
-219.589486 265.544991 543.013606 87 96 59
-725.482793 -652.725200 1486.240429 154 188 76
-239.810412 263.051824 541.855715 52 79 30
115.148267 258.197991 590.990054 98 107 146
-838.672858 -484.567872 1474.912615 80 116 68
-771.382776 -546.570199 1469.386430 152 195 50
-251.902364 -529.659822 1318.337504 138 179 75
115.388593 254.543979 591.715767 144 148 153
194.070454 214.897886 601.625665 142 145 97
-248.229363 -568.200953 1316.230182 134 189 72
-75.021399 -149.569824 1071.571942 116 82 128
106.375956 249.009420 591.139723 74 85 142
84.411393 254.393692 590.359747 130 137 150
-52.132984 -163.272442 1068.353055 199 174 163
-757.740681 -389.633017 1425.354686 231 41 125
-765.575103 -518.806329 1454.150427 145 186 67
144.295266 182.149010 711.424400 29 19 10
-241.752076 -642.239152 1330.418343 119 163 125
-216.723790 250.750769 540.009543 108 198 77
108.187545 259.312023 687.622976 57 42 24
98.198426 177.774988 721.263329 34 25 15
171.772586 284.020793 593.090906 49 26 21
-73.160077 -279.390878 1076.139513 132 123 147
-277.416541 -531.688376 1313.019369 148 197 73
-779.577401 -455.512817 1451.779106 235 47 132
115.460794 254.330450 591.201460 144 148 153
-74.415878 -271.113831 1079.346448 194 126 139
97.947013 155.762753 739.023676 169 136 93
177.749877 248.593991 589.087115 71 30 19
-230.962459 248.908533 542.345831 80 133 58
82.641860 248.128099 590.545059 69 82 141
162.646648 291.894259 596.381137 184 187 163
-210.625781 -491.100302 1301.677181 114 162 98
-57.412187 -304.516508 1079.527422 192 180 166
-308.519938 -462.747937 1296.782140 95 143 94
154.921528 254.112065 591.141873 183 188 165
-272.505524 -590.518104 1322.633359 79 134 82
-890.610878 -658.260577 1534.586657 96 137 61
222.999458 10.839231 810.274743 140 113 69
118.767663 241.251701 592.171522 192 190 175
-269.396144 -458.492181 1282.440159 157 194 95
-727.988986 -355.509043 1403.067494 121 176 131
97.391139 155.515953 739.608263 169 136 93
-74.701287 -63.332420 1000.042112 206 215 111
206.638455 -19.193214 833.776381 53 38 25
191.687184 253.660501 594.737992 81 37 20
-269.013713 166.585107 553.216806 104 204 72
-205.078123 -586.612560 1324.066541 128 178 69
136.744295 272.388324 591.777315 185 190 166
130.902759 164.120841 718.487034 122 96 65
-658.147933 -502.753298 1405.376591 153 193 69
139.516543 9.684255 806.484743 95 77 61
132.060954 240.479182 592.987520 189 191 174
-81.239164 -61.060017 974.070938 203 211 102
-278.666871 -520.223625 1283.706556 144 197 65
-207.638855 -538.923444 1317.270188 147 183 76
-248.062415 222.668060 542.578394 81 158 59
-245.269298 -367.196637 1266.203112 124 173 118
179.712973 -24.639720 834.150249 131 107 71
109.156321 207.295230 699.346459 113 90 56
-61.902382 -147.080117 1070.614141 102 99 145
-136.522695 227.518828 611.533969 57 135 102
92.885943 236.273891 590.533286 204 204 198
-198.161134 -548.185576 1323.867082 150 183 78
-650.875945 -577.481716 1440.065260 104 156 109
127.200970 239.289372 592.004413 201 201 194
183.353309 228.813164 596.527277 97 86 33
179.727788 250.297608 595.903101 71 30 19
-798.135969 -566.692578 1519.330036 152 194 49
-888.829018 -768.633626 1566.531900 96 147 67
-188.473081 -650.494863 1325.346802 116 169 80
-688.125525 -605.989773 1409.009735 139 182 75
-274.596550 -327.595220 1257.164235 205 202 210
-362.430429 -479.100549 1307.889395 142 190 76
133.467927 273.401304 591.816467 187 190 166
-678.298232 -670.720785 1465.892131 85 122 88
25.111524 -689.905973 1441.420476 63 86 42
-675.039575 -505.525315 1437.304654 149 191 73
-229.037698 -443.890615 1296.363463 85 122 64
139.298054 3.623279 806.361672 98 80 61
-292.773953 -380.447694 1273.806321 117 172 119
-81.081793 -672.927614 1394.885083 86 93 67
-290.549390 -331.516030 1268.380494 207 204 209
134.106687 265.973674 693.613740 46 36 26
-14.714868 -195.170574 1089.770791 96 96 148
-120.723445 246.896085 592.627935 112 210 75
-807.385742 -616.593695 1485.687478 75 107 77
130.385859 243.869906 592.195289 182 182 170
78.543736 235.494115 595.210773 174 174 148
77.841630 254.636712 590.932389 157 163 155
21.277315 12.968227 853.523038 107 74 46
112.437091 -28.283839 827.501188 107 85 57
-200.949777 -660.539559 1349.837693 108 148 79
-632.433400 -682.468265 1465.285573 133 169 111
151.144463 238.818767 581.905697 180 183 165
123.011415 240.057699 590.161433 191 190 172
274.036160 -92.235537 873.044145 119 91 61
-667.084455 -727.715869 1473.275416 137 173 90
-67.752213 -335.992155 1072.262121 167 70 107
111.429077 263.179729 687.070759 65 48 24
136.421423 238.871703 589.781244 201 201 194
205.814008 -21.149220 826.151226 57 41 27
-328.944172 -453.268529 1309.499482 95 143 94
-217.487093 -349.530123 1269.883255 171 194 90
144.957724 248.288273 592.741162 141 145 158
61.582748 242.818860 596.381312 178 181 159
177.843880 -113.701685 879.265674 78 60 44
151.063209 238.617776 581.625380 180 183 165
-858.004368 -578.174158 1480.635006 150 187 72
236.674224 154.216233 599.359381 145 143 96
134.458025 223.644452 630.136843 62 44 25
-50.498643 24.586851 894.996010 204 207 96
123.957488 7.416412 809.785220 180 150 107
-28.025379 -283.364881 1092.742021 170 97 120
117.961595 -5.522313 812.370002 146 117 76
-36.213694 -56.950398 973.720760 201 208 112
139.294093 48.458939 779.391613 97 78 51
-42.168319 -285.125955 1074.948616 176 74 100
-349.941388 -339.606747 1289.380088 146 191 81
58.562741 262.912951 597.397284 183 187 163
-98.907876 -144.632639 1072.621066 85 47 104
-158.663793 184.011633 601.152735 84 150 132
-82.076856 90.802190 916.827219 114 152 118
83.626044 185.833535 713.130557 39 32 14
-250.442352 -402.989112 1270.284427 158 196 93
-27.478033 -278.050345 1073.508395 170 97 120
-39.540110 -363.071332 1086.202299 191 181 165
85.752068 237.898307 590.923686 199 198 186
54.907232 -17.708684 857.978499 83 52 31
218.997994 212.433758 599.410286 130 129 85
-38.437450 -327.382291 1080.298407 141 108 135
-258.254341 120.713379 546.574811 118 212 81
87.071100 188.881545 702.758789 17 12 9
274.388714 -50.794064 854.292248 123 95 58
-119.788519 244.719161 588.120395 112 210 75
63.438443 270.328443 596.900611 182 187 160
-509.854349 -644.473643 1405.444750 120 168 126
235.577425 168.901586 603.521778 205 208 182
-175.163667 144.376840 602.401037 49 119 40
131.019334 80.226902 775.914099 93 75 56
-748.040156 -697.702029 1493.124082 108 170 56
84.011263 129.518837 754.354341 16 11 10
84.266425 61.605712 791.828314 120 96 64
24.106542 -6.342287 861.622458 147 112 67
130.827341 -100.908673 848.913763 65 52 42
115.022563 0.628048 808.187168 130 106 66
115.295266 107.907160 760.729926 115 101 91
64.949062 277.095522 598.830718 181 184 159
-35.390539 -289.729974 1091.872116 161 61 99
60.680372 91.953432 783.527775 156 132 87
-56.590542 -24.801870 987.476921 143 137 42
-81.174848 -114.605209 1086.198454 119 180 166
-77.771946 -107.612868 929.327949 209 177 171
235.229732 168.712418 727.186283 104 83 62
97.872354 36.464686 797.100017 131 104 65
-815.315647 -461.799531 1468.464642 166 82 110
137.661092 48.236428 770.230703 93 76 50
130.625879 -123.162044 884.537891 72 59 52
138.118004 229.633468 647.319559 63 44 25
45.802332 257.817991 607.360853 42 31 22
-77.538691 -105.732997 926.634387 197 180 166
-729.992477 -649.824151 1504.949869 143 183 74
-195.943233 -477.094222 1318.447555 106 146 95
-113.371695 247.613510 599.109398 111 207 75
-16.515106 -12.624730 906.571233 131 102 52
216.670717 74.121716 781.420021 138 115 73
-407.168845 -269.828289 1196.613471 82 139 68
117.969516 257.928380 638.708366 202 200 195
-350.589451 -340.559737 1286.672947 146 191 81
90.764093 -125.745716 893.450296 76 60 48
119.197387 263.132242 590.389857 88 101 148
179.418638 213.233004 636.628067 143 144 92
-231.042847 -325.135106 1249.586183 109 154 71
-252.608958 -466.933193 1295.757077 159 190 107
234.676755 -34.759422 845.583526 61 48 32
215.025533 -135.558515 878.551622 78 61 46
-621.164666 -451.847002 1397.728078 125 176 66
-356.945714 -405.308050 1310.740994 180 185 206
124.136627 248.153443 605.506863 188 187 170
241.972278 192.272346 584.822599 107 102 59
-468.494392 -370.173573 1254.980048 75 135 68
-43.588746 -0.051769 939.144687 179 181 64
-385.638263 -482.295873 1315.824919 142 191 78
145.265854 262.643269 590.192638 95 106 142
74.743573 63.283749 773.885390 127 95 61
-38.672263 -280.591614 1090.214640 152 73 107
-315.388083 -630.457398 1351.893505 140 174 87
156.604579 -129.544260 880.924901 180 147 97
0.800011 270.364605 572.121521 88 171 79
76.853204 252.075923 583.227193 157 163 155
83.411183 59.660783 784.082259 120 95 62
115.750772 48.041953 791.160195 128 111 92
-6.806635 -169.537963 1089.410484 203 171 169
162.758547 231.033853 610.391744 90 78 28
97.026370 223.689327 556.568576 205 204 198
62.197255 244.753353 602.562424 178 181 159
141.176094 274.626640 677.742330 197 196 183
103.263042 42.079139 786.938843 146 120 91
46.401264 258.525622 604.241891 41 29 21
110.469769 207.075861 698.394066 122 98 60
15.434447 272.381271 594.317223 119 205 87
113.623483 46.436517 776.799578 130 112 92
123.490196 -116.349200 865.217301 79 65 57
-85.008534 -153.090657 907.999428 175 163 169
98.048529 51.701509 778.750182 180 145 90
254.884225 114.772761 779.029381 174 143 93
57.176712 -396.377703 1171.192461 115 144 52
-121.160884 -425.582696 1216.925024 106 147 91
154.627048 191.008195 699.341534 167 136 79
-432.053172 -456.986462 1174.969217 80 80 63
-688.722730 -548.513482 1421.135100 65 91 54
-118.024057 -257.473576 1103.901298 207 198 190
77.747290 -12.084407 834.110564 66 46 28
-18.736539 -4.250372 899.420534 146 113 55
5.433693 -74.351568 936.883319 146 109 56
73.185660 183.505442 716.900409 32 25 9
223.552469 134.530388 597.066962 121 61 57
-377.747287 -487.384857 1322.086421 142 191 81
-10.925965 164.235984 581.804873 117 202 83
15.000358 -50.052758 878.494001 89 69 55
74.493391 -149.488081 933.291751 126 98 65
-10.951722 165.759213 584.068674 117 202 83
-217.848850 -504.048979 1331.691504 113 162 99
-286.456173 -572.517493 1227.926736 148 182 92
154.259449 -130.353363 869.264969 179 145 97
-45.612010 -429.674972 1089.957354 193 185 168
-237.791833 122.676713 542.296984 65 127 47
-282.407111 -320.696903 1232.900278 207 203 209
-438.675319 -573.995090 1344.357453 144 188 68
-290.283592 268.879569 555.505973 167 168 128
-51.158957 -320.142731 979.162264 192 184 169
-199.929727 231.219850 539.001626 103 185 74
-51.831653 -411.422016 1164.792439 194 184 173
103.562158 184.089767 719.719068 29 21 10
73.956970 -30.776792 843.204820 67 54 42
138.084657 258.795498 627.011323 167 168 163
256.214944 186.170521 570.427429 193 194 157
125.599799 274.544893 680.042305 200 199 191
-124.047711 -269.439874 1135.393898 207 200 192
262.296208 117.797724 801.744596 174 143 91
-70.555604 -441.869461 1349.985576 202 193 182
170.456734 209.341965 659.187426 139 140 93
-8.668673 -429.607580 1079.029601 70 87 62
-449.289781 -585.782960 1377.580898 145 189 67
120.637315 238.039291 624.704924 50 38 26
-15.792715 -444.127820 1103.949335 70 85 64
133.218341 -161.524675 930.801455 163 133 95
-142.802304 -146.684121 989.623079 184 177 182
213.509191 152.461416 660.234000 100 79 58
195.674290 33.924864 819.257120 91 77 59
-10.467748 157.928844 558.050898 120 203 84
-44.981808 -427.093264 1071.128325 193 185 168
-128.147211 261.163470 629.264426 112 210 75
241.621823 -92.676925 859.350889 112 86 50
135.336895 -162.986549 937.387373 168 139 96
51.731594 144.945552 690.360013 142 113 73
72.910882 174.578460 757.185290 160 126 84
-574.233736 -641.784654 1414.854556 126 173 134
-475.654259 -656.496689 1417.526415 112 157 82
-181.866687 186.285792 603.750132 154 195 138
47.220318 182.403590 696.419821 32 25 11
43.350428 224.187477 616.483062 80 59 29
-18.610107 106.441333 541.224304 115 198 84
-128.144029 -160.245850 1078.222159 207 189 182
-19.757129 113.452318 574.792624 106 192 78
-733.949165 -549.987295 1562.597108 149 190 74
-217.648419 -628.062130 1348.383952 58 90 43
-10.519502 156.542323 557.568543 120 205 85
227.676753 -17.213152 787.378174 80 54 28
222.711392 184.606642 767.770856 168 141 94
151.940284 283.495545 709.126707 177 177 160
-208.081654 -78.963386 833.023051 188 177 183
212.872314 168.014070 731.944637 136 110 79
189.221450 171.105346 700.992169 180 165 120
352.227807 -81.887365 881.568248 142 135 125
214.516074 209.525162 590.580163 130 129 84
131.256416 83.017735 778.017401 97 79 58
374.899894 -43.621888 784.820208 98 147 127
247.148139 132.604813 586.499308 125 65 89
89.969613 -137.931230 1014.493209 92 69 52
64.392406 274.598488 593.763781 181 184 159
478.794615 -155.208157 1057.439510 193 171 131
-131.534536 -79.394852 997.886095 172 152 156
-218.862291 164.408084 580.156557 114 201 82
85.668036 262.552356 689.018374 56 42 24
-197.490183 149.747129 609.373484 91 95 64
-343.464043 -261.587274 1287.685877 103 129 52
268.520564 145.490065 637.065040 131 65 83
-124.800002 -405.359382 1122.537968 102 144 87
-226.182162 182.603621 525.771967 77 129 59
392.819996 116.045809 800.679890 100 62 66
456.026472 134.247245 929.495400 96 65 76
125.669807 8.276197 726.402893 94 77 56
59.372107 -26.312876 762.200294 60 49 41
119.104816 38.201326 799.275908 171 145 115
234.058692 -154.903597 893.865995 165 126 66
-390.729286 -213.153462 1028.839163 123 181 178
-379.111603 -143.932311 952.077458 89 81 65
-310.101925 -651.872274 1622.995766 150 190 78
-328.134242 -606.652344 1510.621251 142 195 71
-0.174934 40.981362 863.066836 120 92 58
-381.747656 -179.400713 1037.713963 199 194 191
104.421754 76.029815 770.829051 132 112 103
-222.204085 179.616908 516.387512 76 129 58
264.776875 55.998198 594.694544 46 58 55
-244.530553 -523.810812 1362.028536 84 129 70
-372.720231 -494.506723 1343.646785 141 190 77
-134.273664 70.057093 973.487920 173 166 153
-177.657465 -49.894740 339.178056 85 112 50
-748.062289 -277.551096 1531.128584 82 138 67
366.850331 -57.371496 756.692728 214 101 109
-13.000798 40.578901 855.932191 111 79 45
144.067441 -257.195094 1182.965645 172 151 98
-427.765910 -158.747366 986.953935 155 180 117
51.981944 123.792399 540.258569 173 139 97
-162.586490 -137.225103 862.178396 79 59 25
96.114812 1.870729 763.949819 113 91 57
104.051236 164.087894 649.520657 31 22 14
266.966893 49.250149 597.116798 55 64 48
-599.251571 -480.999225 1233.712248 77 113 71
-923.325578 -618.835383 1594.038868 147 187 71
342.468431 -116.436937 944.614725 129 107 55
277.460812 79.572413 624.361068 78 67 81
289.574330 -515.470255 1409.733540 159 142 98
384.085057 -70.942541 801.285490 141 77 62
-222.981913 214.925815 1010.278420 54 117 39
-129.848102 -551.146353 1279.872405 144 180 76
104.041166 45.605180 760.554020 166 138 106
-37.380623 -147.356076 1190.127271 203 166 163
146.511107 -440.537043 1027.528323 165 150 107
169.353065 60.540172 918.013433 99 82 59
272.685703 -64.960177 682.208956 167 122 123
-394.147834 -357.301625 983.286460 151 195 70
-333.419213 -129.988052 761.876384 168 197 137
-340.552185 -95.033617 898.185541 86 85 67
-165.684618 49.823756 818.383297 94 48 45
81.871242 326.930087 817.274259 112 109 92
28.987389 122.082823 289.980503 170 172 160
41.391535 169.855417 411.095101 124 131 149
103.656293 417.566288 1054.713938 105 112 87
