ply
format ascii 1.0
comment author: Alexander Kryvonos
comment object: reconstructed scene with color
element vertex 264
property double x
property double y
property double z
property uchar red
property uchar green
property uchar blue
end_header
-2.115293 -2.711291 4.222374 151 151 162
0.361121 -0.129248 9.370515 94 85 62
-1.012494 0.413029 1.402572 235 206 150
-0.903938 -0.197883 10.181503 125 114 88
-0.878011 0.178220 8.644243 253 249 226
-0.857155 0.176922 8.439065 253 249 226
0.065350 0.362749 5.378183 108 93 65
-0.707357 0.270406 3.876377 113 99 70
0.536114 -1.349351 9.707614 234 225 203
-0.058327 0.269764 8.834468 235 227 203
-1.278640 0.284120 4.062563 112 95 66
-0.480024 0.267287 3.844271 115 100 72
-0.792959 0.427378 1.473179 235 206 150
-1.081375 0.133542 8.489859 243 231 201
-1.277671 0.683231 2.375124 238 208 151
-0.896410 0.431996 1.459623 239 210 154
-1.184636 0.480339 1.641836 235 206 148
0.631727 -0.117436 8.740100 92 83 61
-0.897186 0.506269 1.708258 238 209 154
-0.795304 0.427497 1.477854 236 206 151
-1.991244 0.314332 4.163895 134 54 37
-0.967151 0.396090 1.519205 136 117 72
-1.690963 0.321890 4.845935 113 98 70
0.751869 -0.505607 8.973391 187 168 138
-0.907770 0.437378 1.478147 237 208 153
-0.682820 0.474209 1.845214 142 122 79
-1.005649 -0.203659 9.889163 129 117 91
-1.387746 0.173450 5.096455 217 203 177
-2.032726 0.416333 2.232779 84 66 41
-0.854608 -0.139040 9.053166 125 115 89
-0.278265 -1.364831 9.926804 230 215 187
-2.243226 -0.416234 21.360529 124 108 81
-0.259494 0.134204 0.727534 198 174 127
-0.681822 0.473550 1.842507 143 122 80
0.201316 0.596708 6.704420 163 146 117
0.428048 -1.065827 9.974560 87 85 52
0.672870 0.112587 7.273452 229 209 175
-1.781061 0.436469 4.120404 130 118 69
-0.869337 0.201789 8.548012 252 248 225
-0.683168 0.477263 1.845419 143 123 80
-1.768808 0.435401 4.091961 130 118 69
0.465697 -1.489210 10.409433 222 212 189
-0.263240 -0.681311 12.916583 112 111 69
-1.201103 0.163169 4.660956 221 208 181
-2.133481 0.409624 2.232806 79 64 40
-1.548400 0.315316 3.948556 111 96 71
-1.284828 0.401276 3.776586 188 165 127
-1.403797 0.411172 3.919354 174 152 114
-0.082300 -0.109647 12.182141 128 117 91
1.106716 0.738345 3.981291 129 112 69
-1.795804 0.346923 5.145732 110 94 68
0.085580 0.150085 8.947065 252 244 219
-0.994086 0.518359 1.575883 158 133 88
-1.292751 0.403004 3.816758 188 165 127
-0.966649 0.395307 1.518578 133 114 69
-0.980872 0.510282 1.555392 164 138 92
-1.078256 0.508332 1.483565 161 137 92
-0.302700 -0.694435 11.598165 110 114 62
0.895376 0.389277 5.584741 96 79 52
1.406516 0.175789 7.320248 118 103 69
-1.254520 0.392381 3.703834 183 158 120
0.467205 0.196232 7.176616 225 212 185
-0.618860 -0.095298 6.564150 123 113 88
0.048027 0.310753 15.933859 249 243 220
0.822459 -0.077053 6.805813 88 82 56
-1.657587 0.371287 5.266784 103 87 59
-0.995328 0.518995 1.577855 157 133 87
0.246446 0.368575 26.997441 249 237 208
-3.313446 0.221159 13.772957 230 212 178
0.284859 -0.081631 7.672473 91 83 60
1.319532 0.168443 6.867516 118 103 70
-2.014889 0.482456 3.095913 190 171 106
-0.981305 0.511105 1.555854 164 138 92
-1.585410 0.157745 5.811472 227 215 188
-1.032046 0.840604 12.165227 110 95 67
-2.231439 0.405818 4.111081 90 66 43
-2.266007 0.438659 4.167042 94 78 47
-0.464553 0.221285 0.657388 148 127 81
-1.704545 0.108263 7.084175 245 231 198
0.827396 -0.536999 9.869572 171 150 116
-1.849561 1.000353 3.832407 127 108 65
0.005535 -3.879894 5.052641 245 245 245
-0.087343 0.393556 4.114244 167 149 121
1.195702 0.396163 5.378298 95 78 50
-0.870400 0.354435 1.367790 139 119 75
-1.144759 0.588888 2.365645 146 125 79
-1.724809 0.574757 2.098042 116 100 61
0.065511 -3.724305 4.975057 246 247 247
-0.043809 -3.241972 4.916236 208 209 209
-3.098581 -0.190496 17.484497 123 109 79
-0.758740 0.620816 8.949074 110 95 67
-2.490782 0.272245 9.139567 218 205 179
-1.216847 0.378394 3.771312 203 182 147
1.268172 0.549081 4.512643 98 87 49
-1.466737 0.302050 9.417662 230 219 191
-1.491073 -0.155790 7.340039 109 98 71
-1.322615 0.565439 2.144293 132 113 69
-1.679460 0.214167 13.178856 250 241 214
2.915267 0.740855 3.795907 109 94 64
1.343460 -0.376018 8.030357 96 90 54
0.112837 0.527871 1.971342 232 202 150
-1.315659 0.410972 1.587588 117 101 61
1.364970 0.443854 3.386006 81 65 39
-0.075245 0.504915 1.240405 227 199 146
-0.423724 0.234090 0.553733 235 211 159
-1.151431 0.626252 2.384988 139 120 74
-3.641233 1.557086 3.904060 213 189 135
0.759225 -0.514322 9.170419 188 169 137
-0.744719 -0.036994 3.417467 120 103 77
-1.794069 0.670667 7.055008 214 195 162
-1.404389 0.575022 1.707316 151 129 84
-0.940260 0.491049 1.221437 242 216 162
1.351039 0.432792 3.353463 82 65 39
-3.593231 1.672191 4.137773 215 190 135
-1.433289 -0.082577 6.574275 129 112 84
0.624726 -0.147735 8.664571 91 82 61
-1.803444 0.474297 2.703256 97 89 45
0.899797 0.604534 3.234064 134 114 72
2.503473 1.173943 3.048062 105 92 54
0.441457 -4.516578 19.409739 92 97 52
-1.155271 -4.077580 11.616170 177 171 141
1.321868 -0.159919 10.975614 99 89 66
-1.053629 0.423975 1.069927 243 220 166
0.951037 -0.367831 25.717131 108 98 73
0.151005 0.341366 4.736040 116 100 72
2.218183 0.681293 3.340711 109 92 54
0.995584 -1.351026 9.906897 96 100 55
-0.791036 0.567583 0.851948 123 105 67
-3.581571 0.235498 14.886250 228 210 176
-1.482465 1.406280 2.661624 138 118 78
-1.347812 0.090380 3.636370 214 201 172
2.203032 0.677520 3.317349 109 92 54
0.453476 -3.888586 4.998788 249 251 252
0.940841 0.635964 1.818781 95 88 47
-1.045852 0.350517 1.271657 129 111 68
0.457113 -0.091170 6.324345 94 82 61
-0.715628 -0.049242 3.280131 118 101 75
-3.562154 1.274933 3.705378 120 109 66
1.515743 -0.117366 8.524256 70 72 43
-0.193965 1.871707 8.017989 141 122 78
0.065617 -3.814960 5.075063 246 247 247
-1.077401 0.542011 2.228174 136 117 72
-1.421731 0.328712 1.340336 97 83 50
-1.627210 -0.171758 9.195327 121 114 83
-1.470081 0.589714 2.038961 217 187 132
-0.744460 0.390586 0.708748 124 105 65
-1.086674 0.522425 1.245653 236 211 156
0.254539 -3.727496 6.554402 147 155 135
-2.049771 0.086612 4.393970 66 64 40
-2.521851 -0.787173 2.646235 37 37 20
-4.420014 3.406162 6.965220 220 188 137
-3.723623 -7.515331 20.503884 134 136 98
-0.321462 0.519806 1.485997 237 212 159
0.077721 -1.847053 11.220748 108 111 64
-1.757911 0.608511 2.040688 190 161 108
-0.607324 0.486872 1.704108 249 224 171
-2.282085 -1.260779 2.231174 81 80 54
-0.458677 0.474016 1.040554 249 225 173
-2.807019 1.800369 2.967216 177 152 103
-0.979879 0.445531 1.393898 154 131 83
0.636498 0.143717 5.601635 153 136 105
-0.668025 0.461578 1.556347 239 211 158
0.233068 0.837306 3.034392 246 219 167
-2.198486 0.513278 4.385292 143 124 69
-2.172956 0.988459 3.766953 127 109 66
-2.907357 -0.854234 5.842235 162 170 85
-0.439021 0.230481 0.906180 147 126 81
-5.276121 -4.812986 18.769470 100 103 64
1.065762 0.465673 3.750038 93 78 42
-0.438735 0.066732 0.652903 79 70 48
-2.168578 0.578130 10.506646 197 181 148
-5.415168 -4.970642 19.306531 100 103 64
0.999465 -1.308872 9.969440 91 92 52
0.771773 -3.413831 5.485029 153 153 141
-0.421031 0.436089 0.954672 238 211 157
-2.786458 0.935272 2.521707 200 172 120
-0.674776 0.337078 0.698751 157 135 90
-1.014486 0.523383 2.844408 176 152 101
-2.316165 -0.176611 4.101433 112 117 62
-0.282927 0.145251 0.793348 179 156 109
0.252046 0.536738 1.940790 233 204 153
-9.183789 3.824583 10.187862 165 146 96
-4.282788 -3.589234 8.935926 147 151 89
0.251550 0.534481 1.937605 233 204 153
-0.777140 0.313246 2.744294 113 96 64
-1.979046 -1.149776 1.739947 57 61 40
-1.364638 0.461908 1.354985 145 124 79
1.060459 0.460712 3.732632 93 78 42
-1.122246 0.525657 1.080256 131 112 70
-2.644221 -4.197145 14.508823 137 143 84
-0.404915 0.383462 1.243952 168 142 96
-0.897643 0.468222 1.166359 243 218 164
0.181367 0.510324 4.993857 134 118 92
-1.025862 0.569898 1.159254 131 114 72
-0.510234 0.178848 1.065946 123 109 63
-2.042680 -0.402808 19.461296 120 103 77
-1.645521 0.955987 2.464847 242 214 160
-0.306595 0.511793 1.153238 223 195 143
-2.392537 0.323861 3.919871 136 113 80
-3.165497 -1.765369 2.924104 73 75 50
-2.204985 0.414021 3.809277 100 87 52
-1.716747 0.476990 3.218242 123 107 60
-0.164056 0.491119 1.252637 234 207 154
7.717999 1.302655 9.498164 97 84 57
5.021834 -0.453072 19.563505 79 69 43
-1.511714 -0.909865 1.413210 74 72 67
1.189456 -3.631726 5.615122 123 125 108
-0.307245 0.512031 1.152039 219 191 139
-0.282347 0.145834 0.791628 183 159 111
-1.121271 0.513208 1.593906 159 135 87
-0.337211 0.274605 0.944970 240 213 160
10.137974 -0.035387 12.929252 74 68 54
-1.152086 0.702472 5.320095 143 126 81
-0.658890 0.361390 0.776750 170 144 98
-2.166769 0.325286 4.529089 141 56 38
-0.193357 -3.111353 7.000822 190 195 134
-2.152886 0.745366 2.492583 175 147 97
-1.720705 -0.048733 4.599908 90 79 50
-2.673064 0.418511 3.977372 103 93 62
-2.507265 -0.780861 2.631767 37 37 20
-1.445130 -0.703630 1.357306 60 61 48
-0.876508 0.400743 1.205518 164 139 92
-2.157888 -1.821468 4.500966 161 162 98
1.750249 -2.059428 4.060326 87 87 67
1.049889 0.564308 5.178993 135 117 85
-2.238807 -1.998681 4.202588 133 126 91
-0.548548 0.089604 0.922740 107 87 56
1.989546 0.614896 4.952322 94 68 42
-0.225587 5.467077 8.399943 210 182 128
-0.476465 0.503817 1.250910 204 174 120
-2.310096 -3.771430 7.441441 204 207 166
0.989298 0.137371 5.014826 118 104 67
-3.323228 -2.496609 15.904536 164 179 93
-0.345591 0.572272 1.297890 241 215 163
1.737411 1.232954 6.262214 134 115 74
-1.116024 0.572577 1.027912 150 128 83
-2.330074 -3.804904 7.505335 204 207 166
-0.992908 0.895287 1.817081 152 130 86
-0.496618 0.159094 1.539410 178 158 125
-1.824883 1.042189 2.738485 244 216 162
-0.513831 -4.601703 5.698477 143 144 147
-0.640932 0.338113 0.831198 231 204 150
-2.080315 0.837711 1.936016 136 115 71
-0.692334 -1.057561 2.982477 144 152 94
-3.131793 1.537056 4.706298 148 123 79
-0.340211 0.253753 0.598418 233 207 155
-0.391944 -0.034330 0.889881 71 68 39
0.085238 0.794109 5.918248 164 139 93
-0.896432 0.467518 1.421094 157 133 87
-0.590268 0.214076 0.580412 143 123 80
0.342812 0.586938 1.339235 226 203 152
-1.504128 -1.262800 1.534891 253 253 253
-8.731061 -7.021613 9.084099 192 192 188
-3.068797 -2.540499 3.178043 179 178 168
-10.302236 -8.264588 10.689387 186 189 180
-10.270149 -8.237481 10.655646 186 189 180
-6.264433 -5.134841 6.528634 195 198 194
-5.076920 -4.155367 5.294971 182 185 179
-5.429038 -4.433929 5.665375 172 175 165
-13.417442 -10.825315 13.920837 177 181 168
-1.608560 -1.349869 1.641752 163 162 162
-2.285830 -1.895390 2.363962 174 175 155
-2.822340 -1.892477 2.486343 178 183 171
-1.634426 -1.370527 1.669784 162 163 163
