ply
format ascii 1.0
comment author: Alexander Kryvonos
comment object: reconstructed scene with color
element vertex 642
property double x
property double y
property double z
property uchar red
property uchar green
property uchar blue
end_header
183.376642 105.099415 266.249134 203 229 237
184.142546 63.352656 213.946497 160 180 230
183.526672 78.959541 265.506118 176 198 221
-237.598382 28.768349 260.734524 162 193 228
-238.127271 29.068857 261.260742 162 193 228
-200.850882 83.844920 270.119699 95 111 160
-236.732505 22.510668 261.917100 161 196 227
-106.986597 76.803962 163.912582 52 83 110
-202.628162 47.900719 275.033052 106 122 168
181.322765 81.112458 218.587336 164 191 230
-210.497287 32.135721 275.720559 85 103 153
125.227179 106.660115 443.612057 123 147 195
171.109982 121.119597 235.295753 66 90 145
-236.938891 41.392155 259.737233 157 186 223
177.298447 95.082541 285.081431 54 59 91
-200.488104 81.968846 269.922430 96 114 162
180.123058 116.434779 277.276984 17 28 63
-236.828041 41.265195 259.644043 152 180 217
180.446797 122.955090 248.177493 183 209 227
177.150491 117.002099 273.868406 60 66 90
140.504293 176.095253 393.638938 69 75 116
-208.691753 38.002591 276.098739 16 26 49
96.920674 161.854816 499.670382 130 145 180
180.729741 60.123679 228.683485 66 82 123
-76.638799 50.303098 417.594650 53 64 87
176.998576 117.144207 273.559313 64 69 95
51.178090 258.275082 558.013789 104 124 183
-69.554436 53.085741 429.732086 49 59 82
-61.909463 57.558211 450.581004 48 56 77
178.549252 110.614568 281.164601 186 214 231
-258.522028 36.203824 274.288221 92 103 144
-219.477740 42.065597 252.316876 115 135 185
304.172713 208.919941 410.434507 56 81 135
-220.896226 40.552887 255.574797 107 128 180
-60.952408 56.908943 443.342995 47 55 76
165.085617 61.970860 300.592183 43 56 90
184.646096 90.166693 215.846301 146 173 209
166.611213 -38.674700 276.668022 174 206 234
183.722278 110.622948 261.273401 33 42 72
134.901979 -57.906586 413.246721 77 106 140
147.960524 142.605228 404.524291 176 190 222
181.776091 46.125693 212.206399 137 157 205
-93.764852 39.119997 359.037536 50 61 84
66.856084 70.301270 169.022844 60 68 96
-220.399183 59.274999 251.735606 115 137 186
212.266194 -237.023588 276.767099 229 253 245
179.343744 118.457877 277.256815 60 66 90
185.002977 51.178535 262.529748 91 126 158
154.932914 -51.060109 344.351692 175 201 234
219.973469 -244.678990 286.871375 227 252 243
-114.096294 53.293575 115.727048 44 79 103
352.932996 -380.559540 462.124266 226 252 245
37.941269 274.312747 592.852629 87 108 169
-101.023580 71.986959 160.717185 97 124 186
-88.731460 37.503985 339.447626 45 57 78
118.152337 187.524533 432.857425 107 128 180
252.820719 -278.239176 330.153814 227 252 244
144.312809 -27.347430 393.769843 45 58 88
181.109635 102.210132 269.408482 18 32 42
-50.677858 26.385175 62.821671 85 105 151
37.204262 269.435651 580.772631 91 113 175
-93.011157 27.342513 333.771404 47 64 106
-246.300954 35.439213 263.957903 86 98 141
361.627553 -391.585320 473.995960 227 253 246
155.452647 123.658271 379.540269 193 209 232
-149.485113 17.353638 291.986962 46 59 82
115.851242 174.172272 425.908184 116 139 193
-202.193539 65.880501 274.918806 92 109 158
-221.477901 40.532100 256.280911 107 128 180
363.108137 -393.814384 476.117852 226 253 246
119.188537 94.109581 452.521446 86 103 149
404.453660 -433.319252 530.081503 228 253 245
119.982662 183.012629 431.649733 108 130 184
333.490300 -360.765904 436.501943 226 252 244
142.245898 -132.409055 412.737551 181 206 229
64.697586 67.983132 163.579580 58 67 94
340.299069 -369.446678 445.816671 226 253 245
178.041540 107.195970 253.196750 31 41 72
410.493079 -441.635601 538.410183 227 253 246
295.168231 -323.219516 386.334206 228 252 246
-223.648796 80.793207 248.458431 54 70 118
184.670795 78.056899 214.489842 154 174 225
169.075338 135.016051 295.827324 68 75 120
153.919641 134.332918 379.389783 184 203 229
165.109135 108.360390 229.088476 74 79 119
185.858019 83.581982 262.988166 15 25 53
154.304387 145.936510 380.409116 179 208 220
174.442378 111.485768 266.565602 21 36 78
-33.993714 184.838060 545.601709 105 118 167
346.005217 -375.783772 453.452424 225 252 245
180.893236 117.567622 280.935011 18 30 70
59.940391 63.083214 151.523751 59 68 97
-90.337916 37.961463 345.743733 47 59 80
166.340398 107.295762 303.474407 128 143 197
131.762027 180.795095 404.361467 55 66 106
247.360872 161.477930 343.514169 71 74 116
159.933484 104.263975 222.155646 77 79 121
-232.319505 37.566020 259.618388 116 142 185
186.541675 79.602532 216.479310 154 174 225
-228.760105 20.097399 259.929833 48 70 109
-231.711264 37.638503 258.893578 116 142 185
-170.201726 13.806581 300.708715 45 57 80
-43.470141 181.577485 399.839734 91 113 173
-63.781466 48.624258 386.357219 41 49 70
136.077630 143.131396 344.016095 62 72 102
65.707384 28.535420 159.656047 193 221 235
179.280614 110.030820 253.529755 58 65 97
187.878347 101.253552 210.916266 77 82 127
-40.616468 184.155937 546.085839 59 77 127
64.893295 68.351250 164.029174 62 71 99
127.692465 -163.301308 342.485848 49 60 87
-203.870238 -10.065371 280.033136 16 33 70
-110.544608 36.247341 360.827290 52 61 86
146.283727 153.365773 401.546186 166 193 214
151.735183 79.430484 407.395398 172 199 219
172.106456 36.405824 295.477004 50 61 92
-124.472233 67.518788 143.137740 57 95 96
153.780120 82.841340 404.743685 110 151 179
165.572387 85.391158 302.344511 134 153 202
65.186477 68.505086 164.813324 58 67 94
-206.927770 -13.026440 292.836174 56 88 135
114.895697 195.255211 435.491264 100 119 168
183.362133 69.676383 227.378993 131 158 198
-142.518939 67.386045 151.615510 111 140 201
185.698305 111.848649 215.872362 82 103 155
174.460534 118.984958 280.024500 58 63 88
149.889348 85.471881 236.374491 169 186 215
-101.045795 41.429600 387.349423 51 62 87
160.754137 69.415748 307.640454 151 182 226
-208.307413 107.735042 268.748837 35 40 57
22.771088 164.657667 355.362093 89 110 167
-218.530437 84.782649 206.890749 33 39 70
182.397520 77.240849 231.270675 61 73 112
-159.827071 76.056693 169.799518 110 140 200
157.120645 73.465876 381.174580 197 225 236
-190.824557 8.384858 308.530934 32 45 75
57.671276 59.765032 146.608712 21 33 67
145.084097 142.398959 429.278371 82 79 117
-187.648367 8.303172 286.378524 49 62 87
-148.710870 65.761526 150.406451 105 131 190
129.927048 133.034247 330.011001 39 57 100
-220.731915 59.275033 252.144430 115 136 185
160.135406 106.876886 377.692171 64 71 96
-185.433932 100.611162 295.571108 53 67 113
-219.474689 75.770136 248.822246 103 123 172
-121.085993 30.561606 339.744399 48 59 82
176.098614 185.016441 445.260668 59 68 99
-206.440368 52.719678 283.706491 100 116 161
180.467682 43.826101 270.856207 26 35 47
58.064605 60.204483 147.599673 22 33 67
150.428852 140.452474 329.438467 74 75 115
-17.532366 247.363420 569.796245 38 50 81
-84.851550 59.108750 132.974755 97 122 184
-214.156522 42.041101 266.128552 24 29 40
-213.656558 43.622088 256.490681 20 27 42
187.946195 153.908597 309.676906 70 97 144
-111.087307 78.839656 176.868840 99 125 187
-125.120301 35.045772 377.835122 53 64 88
-110.742800 26.214843 356.533334 39 57 102
140.435514 72.076239 401.816067 78 91 134
-219.176341 70.284114 249.563851 112 133 181
-105.991514 37.313161 363.372153 50 61 83
-216.591918 28.350884 263.871652 82 100 149
90.932703 137.283295 529.999800 40 42 53
-40.890882 185.210451 549.905272 66 85 135
132.932883 186.165527 425.644982 72 82 125
206.967611 -204.410229 236.437699 76 132 208
136.846922 142.708625 352.525964 32 48 90
159.689002 115.689606 327.906353 76 91 130
-186.047170 8.339332 283.908154 48 61 86
150.698945 -34.530760 390.756561 149 185 215
181.306679 72.315678 256.071926 26 35 59
24.156746 236.820813 516.420021 89 111 171
184.585161 96.956459 258.827934 32 36 54
-167.007655 13.810810 295.003412 41 53 75
184.025600 88.351426 215.298166 152 180 227
-109.371940 26.052510 352.036806 38 56 101
177.097504 -1.911055 251.847047 42 60 105
-136.472161 26.603660 338.252428 39 50 75
161.551178 108.268201 315.161901 136 167 206
143.671485 149.030868 365.198990 24 35 66
159.217624 122.757893 374.470656 89 93 117
135.195949 -99.379089 429.762737 61 77 124
185.858459 70.677237 260.127485 27 34 53
147.451969 -189.605982 400.783723 41 52 83
314.019619 160.730560 298.235971 76 100 156
136.785839 177.350400 423.050789 80 77 118
-192.437998 -1.535110 303.992104 89 123 178
144.171352 -183.793820 392.102637 55 65 93
169.969888 80.508849 283.160775 84 79 117
153.304161 15.742043 378.928746 166 194 212
-139.256656 63.864972 134.795437 54 94 87
159.019987 37.571688 295.220941 94 116 165
-137.919920 67.244638 143.257826 49 87 99
163.773004 -0.887748 283.521036 69 82 120
-199.148774 71.866915 270.460254 88 105 154
155.154833 18.013247 330.916166 52 60 100
181.346483 105.450140 278.125508 15 18 44
91.838870 139.306764 535.598436 41 43 54
179.878763 32.296523 217.270261 42 59 92
156.129039 73.101460 360.880386 114 145 171
131.599875 171.627233 406.720521 79 78 118
181.893604 76.280593 230.801175 67 78 117
169.646381 118.574816 331.980082 139 169 206
-207.043070 107.528823 266.929825 36 40 58
183.292908 63.128393 227.353224 130 157 196
180.305326 64.126456 290.080206 66 72 104
167.534158 175.201511 431.474777 34 48 86
-179.665040 114.798125 270.577397 54 71 116
59.835397 48.601622 170.124969 53 64 98
182.162843 83.652670 225.674179 137 163 205
181.500481 54.445710 278.287116 116 156 178
-226.421972 64.863115 251.317534 89 109 153
-68.665710 48.959851 378.889540 58 68 98
80.605303 147.318001 567.982776 40 40 51
173.207081 113.801791 303.760233 77 78 127
165.932633 81.541845 315.460007 147 178 219
178.072068 48.182724 247.264671 91 119 154
-245.784332 41.934832 260.016276 103 115 157
183.214418 40.638491 256.040794 30 36 55
298.788435 212.330343 428.378104 166 193 213
164.245144 149.151845 316.442070 97 118 174
152.471671 93.763067 392.062473 28 40 58
170.978197 63.752273 277.492100 66 73 109
-205.049953 1.214000 279.647003 46 57 81
148.133628 -26.328274 347.562180 55 70 100
-127.620640 33.492346 353.499033 60 72 103
162.460605 90.345586 323.243644 135 161 199
-50.593009 181.029338 534.748785 83 105 159
166.009739 -32.310037 279.533687 71 92 133
-192.690166 -1.611866 304.400058 89 123 178
168.359641 121.932492 297.436414 65 69 117
160.907152 -29.334749 377.331798 34 50 79
62.498715 65.633337 158.031313 57 66 96
140.427940 166.913483 397.984061 71 74 109
182.093892 74.314984 216.636993 141 170 212
184.599654 103.536347 216.643805 108 129 186
-141.841830 69.134235 147.341848 50 86 103
143.416879 -119.848892 415.925626 184 213 240
-215.175654 83.336558 203.772317 45 52 86
190.910944 80.693808 221.737819 137 159 209
-240.097781 92.477715 227.539348 65 53 95
-128.856615 34.037754 356.827001 59 71 103
180.616329 101.184134 230.578839 69 78 119
-245.944644 35.254159 263.610461 86 98 141
178.493522 105.409807 230.352356 73 80 120
169.579924 -14.100740 261.220501 28 43 69
102.463055 180.206782 493.437468 43 47 76
104.619770 -105.149373 547.120609 17 32 49
-217.489741 -24.147740 264.439710 48 77 156
-97.092743 28.769911 365.852962 55 70 115
-202.770386 -15.471653 291.887898 118 150 200
-234.148067 22.938862 258.918195 162 197 228
143.368231 -94.217147 410.955282 186 213 241
156.758914 86.280686 366.409618 17 24 43
233.621968 -364.630022 776.035861 70 114 204
-196.029242 8.355951 317.006612 31 44 74
-180.845409 115.319259 272.437335 56 72 118
175.738961 89.288041 281.956229 55 64 97
90.117381 -86.148803 182.950686 56 65 99
183.308837 106.038728 238.996604 72 73 111
106.886358 95.904654 481.212216 77 85 126
-225.601791 87.576025 213.562958 30 36 67
80.837525 -88.364069 150.016839 18 28 51
171.963487 119.433222 262.365697 86 84 123
-204.379685 48.480937 274.500236 93 106 140
181.741989 86.526350 269.784879 22 36 51
181.676710 57.693435 218.427426 166 197 232
-13.846539 193.692235 449.433843 33 42 70
84.532596 -93.303257 161.884812 14 24 47
55.377278 -162.473624 401.537774 27 37 65
185.090424 84.842039 259.276456 28 34 53
79.997383 -87.592175 148.442538 19 28 50
149.300337 110.345748 331.513670 86 84 121
125.920727 -168.985122 351.177406 12 26 63
-128.445856 164.579361 398.858360 48 56 93
-113.878304 119.690349 411.469120 57 69 113
-68.519631 -8.105693 137.784408 141 175 220
96.846834 241.034231 560.479817 32 38 55
-223.053186 -14.527321 256.047532 36 49 78
173.941620 120.387045 265.552718 81 80 119
153.031575 -138.497000 385.964053 66 80 127
-230.646710 1.442985 260.247182 24 41 75
-206.092499 54.535231 279.977263 89 106 150
-139.180767 63.786905 134.743593 52 92 90
-211.465794 39.157461 279.586031 17 25 45
157.060874 -34.509456 353.114250 176 210 236
-108.288490 48.226618 438.552483 50 61 87
179.020791 130.714810 300.979014 73 73 114
75.526400 -84.288419 142.068077 21 30 52
49.826145 -145.865904 361.327442 34 44 72
-225.216199 87.343145 213.230608 30 36 67
129.184528 -173.063786 360.338877 12 27 61
121.605568 93.101638 187.606398 134 158 186
147.515961 82.367500 233.349954 137 155 184
-334.110510 142.768256 343.292334 31 39 62
116.059709 -157.584457 323.539849 11 25 62
92.250931 12.127019 594.536409 36 48 71
151.315884 -37.758681 403.786755 135 168 205
-160.825993 102.537097 242.304388 53 68 112
130.784132 170.828235 404.145151 80 78 119
179.306444 130.553471 301.587309 73 73 114
-176.538174 10.459852 287.196810 40 51 75
153.490976 94.468982 394.688808 30 42 60
152.891464 143.811523 323.673682 78 84 124
182.266538 89.181953 278.728189 20 26 53
157.626396 36.483342 292.578187 87 109 157
145.507453 14.737789 344.241855 156 181 212
113.242591 -147.417858 303.474973 49 59 87
176.542336 111.757729 247.435662 69 73 115
-188.001465 -2.463618 332.708683 92 123 175
150.914370 143.856512 390.834930 73 81 102
107.167399 186.070434 473.648598 45 47 66
-51.524027 42.630184 537.104630 65 78 118
184.296670 80.081733 266.507111 185 208 227
159.095838 -134.685904 369.131608 67 81 125
-148.920858 28.157894 359.224688 53 64 93
163.571016 -48.497130 279.219323 66 86 123
182.253665 97.874790 293.024287 59 62 92
-201.509910 66.629493 273.621389 92 109 157
-236.329359 48.457943 260.277256 153 181 219
90.441408 -96.581563 151.632534 74 117 202
179.093485 115.130909 224.318635 83 103 161
73.006349 45.710884 133.987391 137 155 207
128.658866 9.803254 414.516056 67 77 121
131.830087 -170.128587 358.125201 49 59 87
-235.079802 90.548104 222.786984 48 47 89
-198.630356 60.605994 279.001099 61 76 119
-18.676932 264.065842 607.022619 42 53 86
153.303593 -27.168435 359.717546 48 61 90
62.446541 65.729962 157.856558 62 70 100
-82.969920 55.224305 451.288775 54 65 91
172.610230 103.914889 240.930965 58 67 92
-200.756730 51.004390 275.976527 82 97 145
159.959904 -18.041444 311.059388 42 53 92
-142.552397 19.592725 368.131037 55 72 115
-65.173727 56.747090 431.017687 55 65 94
119.106979 -160.828409 332.056318 14 25 59
57.953985 78.854700 164.299070 97 120 164
-242.604650 71.382009 257.676205 97 107 148
116.507460 -66.732937 480.264613 77 89 136
21.274193 153.058225 332.564863 75 95 150
71.417821 14.478955 131.681942 104 126 174
50.315239 48.169201 137.633134 164 176 208
181.463308 54.376726 278.232884 116 156 178
153.721852 -34.546116 345.436169 170 204 231
104.648683 -143.259503 291.597908 13 25 60
154.888880 -37.124096 387.759019 136 172 207
152.228710 141.851003 322.727181 77 83 122
68.008947 -95.308036 184.592715 51 62 87
177.429059 108.778081 247.554485 74 82 120
-203.649102 72.831394 272.496413 84 100 145
-190.290042 9.900890 289.774717 56 71 105
170.847572 104.841688 292.424747 82 77 116
157.542558 109.961879 380.647666 174 190 214
67.083366 43.489018 158.440166 45 54 84
-233.811638 42.524630 255.583569 160 189 224
-222.549834 34.516727 256.512948 117 136 184
141.962484 -62.909521 411.749499 167 201 226
182.480425 64.268565 263.839061 162 183 221
130.647936 -168.639912 354.898120 49 59 88
-33.796259 62.869878 451.660616 38 47 68
-234.260410 90.101233 222.054437 44 47 88
150.406314 -126.752732 378.684558 193 217 233
159.589089 83.925309 326.769829 69 86 129
-120.110497 61.407068 136.541624 96 125 191
163.463634 -28.580513 255.266812 48 64 99
184.347025 52.568714 269.407655 120 160 182
26.497138 -181.914827 269.450183 211 252 249
154.413986 87.132050 229.700766 19 30 43
100.437253 9.257371 539.192858 41 52 74
82.290505 -87.041768 142.975078 14 25 53
161.723195 87.650600 377.908729 8 18 42
177.561303 71.793777 280.570109 87 102 137
152.418783 166.835746 378.707254 83 87 131
180.049805 35.936780 273.863050 19 26 44
-170.905169 14.618709 301.756586 50 62 86
-215.743253 86.940607 245.064012 71 84 129
137.605182 -21.633186 402.697202 87 103 150
166.142963 15.964007 230.436676 55 74 108
-264.546636 103.125924 250.242959 37 43 81
-105.643166 42.035897 386.875428 55 67 93
-234.045287 42.568219 255.838622 160 189 224
237.384674 -368.859101 772.075793 67 112 203
-65.394400 57.314911 432.025719 55 65 94
149.280514 46.890678 392.649178 44 56 91
-223.163423 36.518502 256.383211 107 126 173
177.252315 26.014197 278.259571 53 61 84
65.810847 -63.894667 151.958788 75 90 135
-185.973574 28.977198 303.967363 74 92 140
-76.440362 53.861164 422.376310 56 67 99
89.879943 -97.153346 151.671682 63 108 197
154.322353 83.046922 406.167357 110 151 179
162.294536 39.574397 298.709303 109 132 180
181.310777 90.306105 231.042191 64 76 117
-139.365650 17.041325 339.240391 48 65 109
-137.117897 70.317407 155.767611 108 136 201
181.695014 78.597492 277.595935 18 24 50
122.312688 187.401042 393.512908 90 112 161
186.126278 90.051242 258.976876 25 30 43
152.119938 29.549039 231.385216 17 25 50
227.486344 173.882510 351.059464 117 142 173
-77.074447 37.931432 99.046898 34 37 51
112.768014 -116.428309 189.445639 76 121 205
-129.228068 130.279540 393.529420 92 118 173
-95.210768 27.871711 358.958635 58 74 117
61.345308 -8.868322 163.239973 67 88 129
151.496219 -135.838838 382.513556 72 86 132
-241.664818 71.240443 256.628759 97 108 149
-212.562648 85.727931 207.251517 34 46 79
-34.309452 24.228452 209.298429 44 60 95
304.086854 -295.203608 349.715827 69 129 190
-230.545190 19.409500 259.586397 65 92 128
171.781279 83.944532 295.326098 85 84 123
273.880845 -385.940666 920.345005 44 54 81
101.055373 -99.712023 532.317537 16 31 48
165.155364 89.658586 280.612407 81 78 122
-34.245817 63.559919 458.087694 39 48 69
67.008494 -16.970876 157.059989 39 54 83
192.564704 84.020760 234.277179 126 157 194
153.293417 12.273085 347.019477 123 140 185
-171.049174 14.939172 301.917843 52 65 92
-205.679922 -5.227228 283.709266 67 86 129
-236.396322 49.392149 260.088357 155 182 222
161.129401 120.764274 299.681429 152 179 221
157.104578 123.933268 325.959035 82 91 137
-241.398723 29.376261 264.871530 156 186 220
-95.634397 27.623460 360.744424 59 74 118
170.682863 3.486822 275.035354 89 115 165
-168.281844 59.046251 288.622250 122 142 188
-219.817736 16.087448 256.563236 106 125 176
421.828707 -215.786597 437.904558 72 83 119
-46.417112 26.275532 58.416409 88 112 165
91.113090 73.733267 538.116001 45 61 102
174.758399 -22.086551 259.640601 77 100 145
-104.488973 -48.793090 88.534712 116 160 177
127.341208 -178.805905 543.614776 85 92 140
152.227984 91.765171 344.808782 91 95 132
-216.245160 -26.105411 316.024010 41 57 102
-203.018922 -2.577015 253.301789 61 76 115
-227.242101 69.166956 250.975227 95 116 163
178.084626 99.248169 227.534622 69 79 123
181.286976 39.386418 253.414527 29 34 52
77.146568 -109.802811 214.958416 15 26 58
-28.075742 2.429332 79.109984 54 69 104
-138.502263 102.307224 386.119279 52 68 105
171.046536 93.150848 290.550436 78 75 119
133.920115 126.939954 403.588664 76 74 115
144.670981 44.488223 397.218585 51 61 87
271.374239 -382.098137 912.643134 44 54 81
152.038063 -39.313306 330.753335 187 211 239
-234.682558 92.280909 244.072648 80 101 158
70.647575 57.335101 135.987233 108 135 191
-78.290736 -42.798121 534.474394 96 123 178
109.476154 133.777664 486.506816 70 74 108
174.953320 111.898705 320.589079 127 150 201
144.388617 4.567025 403.389048 51 72 122
78.837836 -72.642101 181.864988 78 94 136
286.396437 -354.413488 788.417613 50 60 88
-128.562930 56.142589 235.642449 31 41 64
-312.353539 -244.087676 547.596604 144 196 208
219.565346 103.571903 320.849026 112 128 157
142.457440 -92.214977 408.961892 174 201 232
57.103389 7.729588 166.609102 62 77 117
60.792427 -19.706145 151.887112 130 167 205
163.955067 179.186676 407.499581 86 92 134
-123.303302 114.278509 409.420961 63 82 130
-123.707453 114.578538 410.796788 63 82 130
159.319806 117.967444 342.124488 82 78 117
182.749689 87.064420 222.916075 58 77 124
-200.167741 -16.511361 306.674778 46 74 128
126.644490 -178.240075 539.967281 81 90 137
84.118039 -43.741642 582.752038 127 156 194
58.426210 -86.371298 162.766370 27 40 70
173.037703 136.661717 390.574155 91 90 120
-126.666785 58.101196 228.059150 29 42 71
160.981472 -99.475201 320.973011 82 94 141
167.448574 11.394110 260.220281 29 46 81
-83.250356 59.374074 127.749549 53 86 101
156.218849 131.731109 381.089718 187 203 230
65.003879 -15.207120 165.997205 77 91 129
240.299906 -298.995751 658.136839 43 54 84
-112.191709 43.804170 411.429755 52 62 90
-193.906153 85.837598 196.064854 113 140 198
-397.580165 -464.765656 763.121154 56 95 140
46.757055 -128.764863 313.792512 45 54 82
132.830301 105.419138 324.335063 152 162 187
-227.656402 162.855995 770.777463 93 112 155
-319.765353 -180.852636 288.939315 108 154 198
132.591180 180.988014 407.328998 57 68 109
-227.202258 -137.883811 296.012453 87 135 181
191.622885 80.608125 222.676245 138 160 209
129.844503 157.011607 423.347070 77 81 126
-61.399276 36.097887 368.187652 45 59 98
-155.003723 67.568445 154.215011 111 136 196
56.230645 8.342480 157.849188 46 62 98
-393.580876 172.471653 398.426373 105 132 189
267.673580 -314.850577 703.954011 51 62 89
159.024284 133.947623 387.972419 168 186 211
-24.551257 35.421338 264.159076 55 68 101
67.809595 34.902938 158.672538 12 23 47
75.876856 -80.196284 130.017031 19 27 48
-2.526194 -280.046612 360.208220 200 247 244
-85.695424 7.021158 165.985029 42 55 85
-244.503643 23.160682 263.365784 86 98 136
167.031821 98.730007 278.894859 78 74 111
171.057824 26.964602 265.380192 44 53 85
306.816249 -336.067586 412.704012 207 242 238
313.336482 -366.839736 827.623925 52 63 89
138.288755 -63.920003 226.089758 154 179 211
83.407910 -84.694028 144.596447 45 58 83
-200.792624 43.051616 283.131722 54 67 111
106.731444 -104.463578 185.482460 46 58 83
-120.558048 78.966236 228.511959 54 66 116
71.173294 23.412743 146.083714 71 81 120
-215.582251 -26.062313 264.727821 55 82 161
-189.553543 -17.713297 314.004255 39 52 75
94.688523 -94.501346 164.400022 48 61 84
107.651415 -105.248458 187.096865 46 59 83
-257.707407 106.796265 242.246504 117 145 206
-186.310701 -0.957983 294.233401 100 131 192
453.844604 -490.049307 612.350386 208 242 238
86.713758 108.922925 242.856749 70 79 123
-276.554056 112.077085 260.009924 107 133 192
-80.692817 -67.720089 100.813196 92 129 176
80.271525 -82.597019 139.207470 47 59 83
-79.867377 -33.151837 513.528036 106 131 185
162.474332 41.431451 378.270812 61 73 104
-239.598995 59.288761 255.586066 89 101 144
65.537130 -174.312471 442.029339 47 57 85
-116.072023 37.622451 163.646190 63 75 121
288.510382 -420.353712 980.515178 37 47 73
110.337399 -107.388890 191.795997 47 59 83
-322.568788 142.409120 326.265913 111 136 194
-214.291108 -9.390262 297.535796 38 53 83
-258.374318 -249.014214 361.934323 125 199 212
58.686086 -86.504020 163.427938 27 40 69
53.479733 90.925764 183.826099 84 107 161
-115.871467 84.934942 416.782054 80 97 144
60.126895 -2.552109 167.740350 60 81 131
76.475019 60.188545 133.068046 71 73 116
120.349143 94.405596 186.313429 68 93 151
-2.371054 -290.616884 375.656826 195 239 236
151.583929 -219.005298 410.449590 168 219 243
-433.230041 -9.340036 398.271610 94 119 171
103.268408 -86.693672 538.726006 27 44 63
62.834079 59.016506 162.985890 47 55 71
-247.901831 15.798979 263.792524 102 113 152
71.528335 -63.776476 133.365648 80 94 139
268.950080 -243.041615 471.315244 32 48 86
141.052920 -375.587249 989.275255 36 47 75
23.766468 -149.586973 847.217971 167 185 214
-205.101949 85.085418 193.199993 119 146 207
-370.797809 -220.292159 435.910540 141 187 215
157.642406 -2.304692 273.364148 78 92 131
104.380197 -139.937573 544.457518 22 35 51
102.989147 127.154074 457.902340 76 81 117
-83.174559 28.333533 347.733220 45 60 105
64.779063 -20.546917 161.833958 125 162 196
145.311064 154.450258 304.502772 91 116 171
-31.593976 8.046809 116.439905 52 67 95
-411.256825 -440.900806 663.280740 60 107 158
113.534350 23.393874 194.832090 53 64 99
150.813787 136.044764 349.025566 192 215 234
181.020026 43.131367 271.759780 26 35 47
-207.655027 96.133116 219.678625 123 148 206
-135.781454 -61.503988 395.979980 64 81 128
158.350032 -93.489734 378.183658 10 24 53
151.743399 6.285372 327.322177 70 79 120
59.469029 -44.558486 169.978029 178 207 237
158.590715 -82.521428 347.005238 148 176 207
81.211275 109.467217 576.168827 17 28 47
156.231134 -234.601125 423.910518 169 223 248
29.198808 -197.544743 295.112517 189 240 239
-79.041794 39.330737 101.972746 32 36 52
-210.572014 158.082558 587.639666 59 76 117
-196.354161 -41.268937 327.340731 24 36 63
-194.111673 -16.077821 321.210743 32 44 68
76.939255 82.537239 160.854169 91 116 171
-229.651763 -48.600473 267.407803 85 119 201
162.805044 -38.937468 270.192201 160 192 222
130.863784 81.079711 206.071416 192 217 230
-193.524324 -36.325678 314.362579 26 41 73
-247.282704 30.646144 262.805460 99 109 150
157.754771 13.368562 355.139684 117 136 180
25.732549 29.214205 114.755153 73 78 121
108.070081 -64.582160 508.924752 160 185 219
269.807640 -316.972429 710.130511 49 60 87
-20.414295 -190.973785 307.272962 157 215 229
120.011522 94.127424 185.796446 68 93 151
-228.043913 65.631727 253.016346 90 109 154
-235.446400 -221.886816 541.563093 119 175 194
-107.869754 2.452967 433.536479 76 104 164
157.305001 -89.988619 367.480168 43 57 82
-52.661246 -4.220767 194.246767 63 84 139
-400.657124 -243.163891 525.149000 36 69 111
30.234672 -417.061739 589.911239 169 230 243
-354.706162 149.667665 349.487286 106 133 189
-134.226013 71.964529 353.475247 38 52 83
159.915275 -236.844240 532.943314 41 50 75
-22.458804 -194.851214 305.293932 82 140 177
157.925132 -35.307163 231.128351 88 127 180
23.866018 38.690876 123.208440 168 186 217
94.628037 23.850226 564.737902 64 79 102
61.591505 -16.045814 167.834225 47 59 89
153.737789 72.836683 228.276658 23 37 59
-74.680939 -22.362800 123.205235 20 30 55
152.027268 38.944354 353.966525 68 78 110
-203.391040 -1.635077 253.655362 62 78 118
-231.738178 -156.631495 370.437670 182 230 240
-155.552611 -108.949820 246.746710 191 236 244
-224.520878 -152.636618 358.569936 173 226 239
-54.934121 -46.045678 80.282760 113 141 181
-250.008001 -169.634052 399.393918 131 181 214
-55.758950 -46.343160 82.054760 165 205 237
-581.843452 -351.286501 897.623293 106 133 152
-280.251855 -186.450812 448.658753 122 163 203
-263.853548 -131.952993 333.267630 149 184 223
-274.073007 -183.563204 438.571819 123 166 207
-385.997189 -250.604118 617.096315 135 173 200
-59.844831 -48.807114 89.057984 160 205 236
-176.258953 -123.248549 279.578611 174 217 240
-53.774333 -45.042340 78.824078 104 132 171
-622.674278 -393.239264 984.527475 133 166 199
-143.713300 -101.902811 227.088216 178 230 240
-59.380155 -48.896330 87.638691 138 177 215
-150.551806 -105.861674 238.544296 156 209 220
-262.562600 -175.254050 420.265731 130 172 212
-148.419328 -104.559270 235.032028 159 211 222
-468.414149 -295.968953 743.547633 108 138 153
-59.807344 -48.847931 88.890878 155 198 230
-93.942371 -70.726032 145.045710 111 152 197
-473.360162 -305.157864 755.185882 109 139 153
-145.442139 -103.445563 229.513374 187 233 242
-94.750206 -71.406370 146.154147 114 156 201
-95.094525 -71.646534 146.692975 114 156 200
-155.495355 -110.224955 245.572135 181 229 242
-77.544074 -59.858140 118.613958 126 168 221
-406.882055 -264.029617 650.315136 109 147 171
-103.206839 -76.712482 160.172339 127 164 213
-100.083394 -74.483288 155.338281 129 167 208
-116.248584 -85.091492 181.499946 126 161 210
