ply
format ascii 1.0
comment author: Alexander Kryvonos
comment object: reconstructed scene with color
element vertex 451
property double x
property double y
property double z
property uchar red
property uchar green
property uchar blue
end_header
0.434058 -1.652871 4.735313 243 243 242
2.250754 -1.626082 3.952212 242 243 242
0.715008 -1.538042 4.930492 242 243 241
2.229685 -1.601542 3.909014 242 243 242
0.306392 -1.678749 4.927635 243 244 242
0.595764 -1.628565 4.890988 80 100 247
1.062332 -1.550912 4.762251 105 107 207
0.911366 -1.178186 4.692306 243 243 243
0.816384 -1.340409 4.725734 243 243 242
1.092308 -1.319516 4.649025 113 110 216
0.208595 -1.600562 4.951874 159 179 243
2.619101 -2.074399 3.764121 225 229 244
2.585349 -2.033674 3.689045 203 208 247
1.809727 -1.214635 4.416002 243 243 242
1.966667 -2.409901 4.063364 109 109 189
2.180517 -2.379537 4.047916 243 244 242
0.779676 -1.344985 4.773972 242 243 241
0.551900 -0.780676 4.942264 243 243 242
2.245271 -1.336931 3.945993 242 243 242
0.320698 -1.772038 5.036658 243 243 241
2.459987 -2.525589 4.102247 239 245 243
0.783609 -1.229938 4.817092 243 243 243
0.069479 -1.631108 4.042199 243 244 242
-0.457082 1.819824 3.501855 109 100 102
-0.506845 1.507411 3.576883 182 144 154
2.175234 -2.050245 4.064000 231 243 244
1.870911 -1.230406 4.547337 243 243 242
2.446976 -1.517556 3.828758 125 124 218
2.258230 -1.382434 3.528098 127 125 219
2.786314 -1.767711 3.781352 242 243 241
2.721127 -1.750249 3.851004 242 244 242
0.758513 -1.725755 4.891260 243 244 242
-1.467505 1.996169 3.564264 149 167 97
-0.110756 2.007997 3.499263 123 103 110
-1.937114 1.407807 3.049329 168 214 94
2.076734 -1.454037 4.052486 126 120 207
2.057816 -1.800693 4.066009 121 120 208
0.090796 -1.017180 4.460975 243 243 243
-0.032995 1.675118 3.517672 122 107 112
0.160413 -1.713433 4.889745 243 244 242
2.882963 -2.092015 3.933455 225 233 248
-0.990272 1.783497 3.383559 47 53 42
2.101069 -1.479629 4.104741 125 119 208
-0.282363 -1.401652 3.861622 117 106 166
2.050559 -1.796829 4.051730 121 120 208
2.077060 -2.235074 4.055278 237 235 248
2.157182 -1.676042 3.943252 239 244 243
-0.302355 1.910738 3.480266 43 43 52
-1.931902 1.274100 3.057278 61 75 49
2.046500 -1.785860 4.406624 243 244 242
0.312024 -1.718701 4.890687 243 243 241
-0.101311 0.978919 3.607920 180 147 166
-1.343612 -1.870622 3.856230 66 67 110
-0.930223 1.827745 3.500045 127 154 87
-2.129575 1.149398 3.462394 51 60 49
-0.798787 0.714645 3.668316 143 113 134
-0.410885 1.918566 3.538368 63 55 74
-2.256630 0.981681 3.517138 53 69 44
2.207024 -2.313031 4.029579 243 244 242
2.766275 -1.712973 4.010904 243 243 242
0.923504 -2.542972 4.859422 242 243 241
-3.219066 -2.329999 4.661968 88 121 111
2.101556 -1.465753 4.081826 129 123 209
-0.695659 1.875990 3.402324 56 65 51
-0.562801 1.651969 3.492402 103 103 93
-0.646200 0.966796 3.649987 67 57 72
2.510177 -0.928838 3.904858 243 243 241
2.460212 -1.019932 4.120592 244 241 244
2.132435 -1.659284 3.898521 239 244 243
2.788019 -2.438763 3.916019 229 247 242
-1.849737 0.890616 3.794748 155 172 105
1.744918 -1.727699 4.020998 213 235 245
-1.957270 1.422264 3.081036 168 214 94
2.255400 -2.539368 4.038785 237 244 242
2.313895 -1.451002 3.629039 127 127 226
-0.850293 0.917900 3.590442 39 39 51
2.626189 -2.046992 3.935550 240 243 242
2.105939 -2.410201 4.025334 242 244 242
-0.617554 1.712458 3.514688 86 108 76
-0.789817 0.714626 3.649168 147 116 137
-0.747840 0.888355 3.629042 153 116 143
1.434039 -0.862452 4.716032 243 243 242
-1.893789 0.951726 3.761466 44 52 46
2.660844 -1.988034 3.716543 122 126 212
2.291774 -1.224507 3.931956 123 119 210
2.053806 -1.766296 3.985133 114 114 198
-1.822354 -2.671994 4.068571 72 73 124
2.600002 -2.604335 4.092151 243 244 242
0.007031 1.950332 3.612472 53 52 58
-1.237526 1.753709 3.671001 55 68 45
-2.031368 1.083112 3.435974 129 156 87
-1.519425 -1.862333 4.224606 62 62 90
-0.500163 -2.310694 3.821491 243 244 242
-2.076252 1.467760 3.096158 34 43 35
-0.639866 1.730988 3.412318 142 177 96
2.074267 -0.734027 4.813558 202 202 238
-1.385898 2.065448 3.499107 27 33 27
-3.231296 -2.454568 4.710673 234 242 243
2.380530 -1.386978 3.873177 132 126 216
2.007736 -1.534496 3.865503 125 122 212
-2.170100 0.920521 3.533604 164 200 101
-0.101702 0.988041 3.633616 180 147 166
2.204594 -1.763470 4.066898 240 243 241
1.756006 -0.869584 4.573023 241 243 241
-0.776805 1.725568 3.564930 142 172 79
0.730322 -2.128709 4.818480 242 243 241
2.381244 -1.996730 4.118253 236 244 243
0.920512 -1.366420 4.658931 243 243 242
1.965335 -1.375754 3.822185 125 122 215
-0.656216 -1.186897 4.741424 243 244 242
-0.084171 1.055149 3.639504 151 124 144
0.957482 -1.419874 4.764958 243 243 242
-0.379280 1.332779 3.613219 50 59 51
-0.041751 1.064944 3.613911 106 89 117
-1.933027 1.309666 3.076007 51 62 42
1.829287 -1.201799 4.617461 160 170 230
-0.138559 1.743278 3.501561 106 99 107
-1.440742 0.924663 3.921697 164 146 124
0.109877 -1.377033 3.494084 242 243 241
-0.599257 -2.221021 3.822974 76 83 170
-0.455137 0.906593 3.745728 46 50 52
-0.603733 1.333473 3.612807 144 121 142
-2.584522 0.959525 3.481054 38 47 36
-0.647033 0.961033 3.610403 75 63 79
-2.467343 1.175749 3.461683 37 46 33
-1.298341 1.313631 3.600943 38 44 41
-0.142504 1.788780 3.596361 109 101 111
2.550968 -1.855940 3.869394 242 243 241
-0.915645 1.864947 3.332662 178 223 96
-0.507265 -1.892485 4.027863 196 208 253
-0.776832 1.523675 3.604922 41 47 43
-0.427313 2.131182 3.420297 158 129 125
-1.873743 1.433473 3.049148 147 182 95
-2.069719 1.335619 3.111097 196 188 145
-2.008402 1.175150 3.707056 140 167 87
-0.672659 0.961475 3.600040 90 75 91
-0.547452 1.327807 3.610594 212 158 165
-2.639995 1.070616 3.425059 47 58 41
-2.707580 0.434591 3.658752 47 56 47
-0.090889 1.144191 3.682492 146 120 141
-0.532219 -1.981899 4.193528 195 209 253
-2.014117 1.484874 2.974693 164 200 111
2.795755 -2.443961 3.926718 229 247 242
1.152250 -0.959861 4.628113 136 129 232
0.899895 -1.996077 4.642573 115 114 205
0.370954 -2.569983 4.682280 243 244 242
-1.452713 1.234769 3.516128 93 119 55
2.002534 -2.270378 4.151398 107 107 193
-2.176407 1.373123 3.151842 49 61 41
-1.928169 1.206283 3.361131 140 175 82
-2.629148 0.974624 3.534021 39 48 36
0.298903 1.799739 3.572144 98 128 87
-0.635965 1.630892 3.651979 164 158 124
-0.171080 0.819592 3.643902 171 134 146
-0.796216 -1.395715 4.816204 83 96 120
-1.270377 1.281978 3.521867 39 44 41
-0.448882 1.454946 3.622432 77 67 82
-0.040123 2.197848 3.428610 32 32 51
-2.440967 1.165474 3.101214 49 67 41
-2.080635 1.125798 3.653066 61 73 51
-1.970528 1.160625 3.545092 152 177 97
-0.638571 1.225679 3.571827 140 111 135
1.024366 -2.994711 4.611594 230 239 247
1.952092 -1.712747 4.085087 243 244 242
-1.614581 0.939320 3.745478 41 46 44
2.711975 -1.667156 3.930396 243 243 242
1.334803 -0.668762 4.535241 117 115 180
-0.687220 -1.619276 4.490190 131 149 130
-1.843652 1.391833 3.085503 79 97 54
-2.410703 1.075390 3.501341 41 47 37
2.274289 -1.084866 4.208089 139 130 208
-3.298389 -2.396439 4.617396 232 240 244
-1.694297 -1.976382 4.091019 188 205 248
2.139425 -1.533236 4.180476 128 121 210
2.007071 -1.518922 3.862139 126 122 215
-2.176970 1.723152 3.221027 31 38 28
-2.657769 0.870954 3.391778 34 40 32
-1.105694 1.424728 3.621049 101 124 69
1.168587 -1.364640 4.518485 234 231 248
-2.013851 0.963591 3.343474 53 68 44
-2.175137 1.346679 3.129777 45 55 41
-0.997872 -2.193934 4.154849 167 189 249
-0.767858 1.667811 3.629582 149 185 74
-1.785797 1.437151 3.084202 114 149 78
-2.248851 1.083849 3.370015 40 48 36
1.933221 -1.033079 4.171488 243 243 243
2.623733 -2.081653 3.629252 117 124 215
-2.306888 1.264030 3.420419 132 164 86
1.942902 -1.843935 3.884264 102 104 194
-0.065669 -1.633688 3.651067 240 241 244
-1.653010 1.257484 3.161735 142 174 90
-0.467444 1.679745 3.642772 159 128 133
-1.212063 -0.715868 3.872026 177 137 152
2.002546 -2.184145 4.099240 106 109 192
1.154735 -0.945040 4.436376 135 126 219
-0.765455 -2.332208 3.951028 125 127 195
-2.730227 0.808506 4.320425 33 39 32
1.997754 -2.280662 4.144230 107 108 193
-0.903541 -2.533844 4.102600 231 236 245
-2.086113 1.385269 3.131264 166 175 144
0.806894 2.265568 4.057330 61 74 57
-1.226784 -2.171667 3.584829 243 244 242
-1.802873 1.389709 3.036538 91 118 55
-1.045618 -0.042575 3.845098 147 111 138
0.296559 1.786064 3.547591 98 128 87
-0.325663 -1.740869 4.068479 110 105 158
0.628593 -1.987683 4.959904 232 244 242
-0.083528 1.554791 3.841547 66 62 77
-1.017281 -0.051924 3.735916 133 104 133
-3.170237 -2.488916 4.549633 220 241 245
0.754653 -2.563879 5.156978 226 245 243
0.048844 -0.689261 4.848299 149 179 167
-1.355537 2.022643 3.423278 29 35 28
2.004918 -1.511834 3.856168 127 123 216
2.127450 -1.897008 4.055833 232 233 248
-0.857062 0.458750 3.772965 102 87 103
-2.395820 -1.976421 4.169979 78 98 87
-2.629799 -2.069697 4.420276 78 98 79
-0.527321 1.750643 3.499979 82 79 80
-2.267821 -2.309378 4.271038 65 75 92
1.789318 0.282062 4.066239 243 241 243
-2.330854 0.974136 3.079826 43 52 37
-1.032035 -1.189699 5.028360 86 99 97
1.202407 -2.246467 4.810473 239 243 241
-2.301804 1.261538 3.412977 126 157 84
-1.802870 0.659620 4.008924 59 66 64
-1.075434 1.429115 3.456709 153 193 100
-2.332763 0.452675 4.435917 42 50 45
0.089131 1.270157 3.745078 52 49 62
0.780686 -2.654679 5.337509 222 245 244
-0.116021 -1.528361 3.957360 80 84 166
-2.340687 0.979716 3.093135 44 55 37
-0.882391 0.464702 3.699475 74 65 95
2.413687 -1.762291 3.259040 184 200 251
2.285330 -0.309724 3.979486 97 93 145
2.137128 -1.923159 4.071217 233 237 245
-1.184155 -1.887519 4.427381 98 115 116
-2.213492 0.845228 3.576285 118 141 76
-0.247174 -0.431490 3.780503 76 69 109
-1.637349 1.161886 3.705285 35 38 38
1.965718 -1.937950 4.218974 232 238 242
-0.337523 -1.804140 4.215922 109 104 157
0.009999 2.043267 3.760825 44 43 54
0.232125 -1.720415 5.369822 186 202 245
0.375955 0.712389 3.940420 60 60 77
-3.014606 -0.323923 3.907423 59 70 56
-1.166655 0.428428 3.836455 55 63 57
1.655428 0.659776 4.375668 67 64 87
-1.151682 -1.375881 3.899341 59 60 80
-1.077828 1.430267 3.463827 153 193 100
-2.025166 1.280593 3.398570 76 103 56
1.879076 0.075388 4.300266 245 235 248
2.121883 -1.088117 6.280583 243 242 242
2.683467 -1.751946 3.902749 104 114 226
-1.261001 -2.038531 3.531263 228 239 246
-1.373289 -0.043796 4.267891 49 54 60
-3.082075 -0.743687 4.244606 51 63 51
-2.862348 0.743664 3.940528 28 34 30
-1.017147 -2.278079 3.947301 217 232 243
0.335892 -1.866139 5.126861 242 243 241
-2.672134 -1.392136 3.574921 65 78 78
-0.034142 -1.612145 3.293704 227 234 247
2.065526 1.442677 3.993289 78 74 90
2.200130 0.659301 4.191857 92 84 117
-1.842010 -0.761123 4.143783 43 50 53
-2.210848 1.090563 3.495710 136 157 76
-0.840753 0.363679 3.561098 147 118 145
-3.199369 0.507339 4.322602 70 77 67
-0.340863 -1.873193 4.042522 101 97 159
-2.564424 -1.485286 4.028969 85 103 79
-2.647603 -1.442678 4.236304 99 126 77
-1.001098 1.481638 3.503247 71 90 60
-1.199608 -0.707400 3.833339 177 137 152
-1.462229 -2.324829 4.448493 223 242 245
0.428143 1.432149 4.504582 50 56 61
-1.222233 -1.002370 4.045280 64 60 79
-0.010265 -1.606491 2.965044 232 239 243
-0.901146 -1.820340 2.793844 153 171 244
-3.194666 -2.638138 4.355755 204 226 245
-0.109259 1.701051 3.456768 119 109 121
-1.191173 1.739942 3.742918 104 125 74
2.217252 -2.378895 4.326806 245 242 244
-1.816708 0.378261 4.424758 53 60 54
1.384268 -0.628380 4.456496 170 171 212
0.379876 0.720162 3.980800 60 60 77
-0.608221 -1.358856 4.143007 87 102 111
-1.785087 1.280016 2.989231 155 162 110
5.659150 -0.282338 6.642719 242 243 241
1.056658 -1.765769 4.406947 241 244 242
2.340035 -1.954783 4.044637 236 244 243
1.699535 1.990251 3.991979 45 46 58
1.962765 1.034388 3.665153 98 88 108
-0.154147 -1.619176 3.702892 73 74 132
-1.954696 1.020947 3.692826 42 49 39
-2.396986 -0.882866 4.644016 153 165 193
-0.650386 -2.062084 3.673449 224 234 246
-0.970397 0.298645 3.658023 135 108 115
-2.959172 0.969631 4.773492 35 45 34
0.516101 -3.089030 4.884295 143 150 212
-2.112600 -0.479218 3.823508 61 75 58
-1.266154 1.893911 3.460251 37 45 35
2.001959 -0.067467 4.207809 198 207 232
-1.232741 -1.953450 3.757873 226 237 246
-1.124306 1.438775 3.646105 106 127 72
-0.926486 -2.210424 4.523454 126 145 204
-0.912943 -2.178217 4.456097 126 145 204
2.133334 -0.419162 4.058641 115 109 164
1.649242 1.692177 3.883629 53 52 65
2.781644 2.026666 4.078002 65 70 73
-2.156762 1.248687 3.696534 69 83 57
-2.849323 -2.842201 4.470852 223 232 244
-1.345026 -2.507169 3.949047 243 244 242
2.867393 -1.011307 4.852856 239 242 242
-1.667419 0.557061 3.918262 44 51 50
-0.239091 1.631139 3.598412 57 67 56
-2.156799 0.670396 3.486311 33 41 31
0.528395 -2.715147 4.857700 243 244 242
-1.224350 -1.912330 3.756032 242 243 241
2.227914 0.694163 4.064813 85 79 101
0.689509 1.996132 3.896441 107 137 87
-0.923761 0.521453 3.551065 76 87 78
2.171914 -0.365551 3.868282 111 104 148
-3.404091 -0.919779 4.401663 62 76 58
-1.822481 0.573326 2.946484 34 43 33
2.236826 -2.397025 4.363902 245 242 244
1.648375 1.690321 3.882705 54 52 65
-0.089909 -2.035872 4.322524 226 241 247
2.656076 1.227788 3.922053 98 105 105
-1.666691 -0.080186 4.537685 38 40 49
-3.218991 -0.449421 4.538919 42 50 45
1.343694 0.702453 1.637825 194 180 199
0.869246 -2.554377 4.760552 243 244 242
1.661809 -1.639746 2.952709 243 244 242
1.745943 0.239623 3.865203 222 229 243
2.906712 -1.026966 4.918562 238 240 242
1.103186 -2.538721 4.977656 218 234 244
-2.274807 0.788851 4.548301 40 46 44
-0.581604 2.076561 3.481580 43 52 42
0.149046 -0.583850 4.579937 153 169 191
-3.298865 -0.893881 4.275817 62 76 59
-0.746350 0.530302 4.987433 79 83 79
-2.722103 -1.255655 4.484973 72 87 76
-3.229726 -1.964846 4.716482 131 158 100
-0.320780 0.639458 3.755623 55 61 64
-2.252688 1.219269 3.337408 141 175 91
-2.953647 -0.599582 4.357985 53 67 61
-0.342009 -1.977039 3.674105 67 75 124
-0.330144 0.654289 3.865702 54 60 64
-1.303593 0.479460 4.287416 55 63 59
-2.658159 -0.397214 4.358290 53 66 56
2.229816 -1.624160 3.097469 133 138 218
-2.208498 1.077963 4.123891 54 60 43
1.954749 -2.028773 4.287456 217 231 235
2.181115 -1.475954 4.019568 244 242 243
-0.012531 -1.591018 2.954702 241 243 241
-2.445470 -0.517060 4.103117 150 179 92
-2.270221 -0.684950 4.002747 41 47 48
-3.020959 0.469153 3.951834 38 46 37
-3.128973 -0.847034 4.044629 63 77 60
-1.285909 -0.451607 3.823534 47 54 55
0.148112 -0.585215 4.564704 163 174 195
-0.911351 0.515223 3.503187 76 87 78
1.792116 -1.950118 3.674032 107 108 193
2.000960 -1.855902 3.725576 238 242 240
1.844080 -0.802172 4.182809 242 243 241
1.814325 1.460903 3.574548 93 88 101
1.526298 2.010277 4.165962 59 58 70
0.980503 -1.499964 4.165470 112 117 213
-2.796188 -1.530834 4.512972 97 122 76
1.504857 0.210989 4.055537 69 66 100
2.353590 -1.086743 5.140778 243 243 242
-0.913805 -2.573902 4.193517 232 236 245
2.126205 -1.020842 3.933095 143 131 210
-0.896723 -1.045030 5.207040 84 99 101
2.063617 0.798164 4.142333 233 225 250
-2.725472 -0.822280 3.663727 68 83 58
1.013467 0.872915 1.938506 209 207 153
0.054415 -0.411299 5.009543 242 243 242
-0.397236 -0.013153 1.387901 204 176 196
1.988691 0.061321 3.798350 90 87 122
1.865972 -2.286366 4.112749 236 244 243
-2.743278 -2.140092 4.597761 83 105 79
2.508987 -0.874613 4.248613 242 243 241
0.618488 -1.475634 3.831985 242 243 241
0.748060 -0.023050 1.118037 97 92 128
-3.447846 -0.616792 5.086015 92 108 102
-0.509022 1.828565 3.307175 39 41 44
1.109595 1.919793 3.820447 58 74 60
1.682321 1.210730 3.855511 63 62 78
-2.662329 0.720241 4.015978 28 33 30
1.882373 0.463173 3.720489 224 224 235
1.737355 1.154020 3.281430 83 78 95
-0.798622 0.344065 3.381808 149 120 147
-0.796215 0.340132 3.370576 155 124 148
-1.094179 -1.267595 5.282525 90 102 100
1.285828 -0.164830 2.139461 101 93 139
-0.839035 1.276894 3.713367 62 63 54
-0.363371 -1.582233 3.585514 221 220 252
1.115647 0.504603 1.436393 100 105 108
2.306807 -1.772948 3.448177 240 243 242
2.561760 0.249316 4.383907 183 188 198
0.983754 1.961859 3.742996 69 84 67
-1.131905 -2.309373 4.263098 120 156 236
-0.453426 -1.049832 4.676066 120 127 155
-1.120017 0.454816 3.921160 64 74 64
-2.491517 1.543114 3.265118 29 39 27
1.556405 -0.503842 2.678617 143 132 191
2.027613 0.593490 4.148269 220 223 227
2.182556 0.840816 3.040696 130 138 139
0.150241 1.157222 3.579232 47 44 59
1.245816 0.911924 2.773603 65 63 76
-2.944002 -0.655628 4.310841 54 63 57
1.495965 1.011711 3.434811 58 57 73
-2.176523 1.506156 3.034442 30 36 31
0.524064 0.168920 0.707603 87 81 99
1.097460 1.656143 3.155552 194 211 117
-2.646367 -0.583396 3.934486 55 65 61
2.418101 -0.361282 4.256980 102 98 148
1.054677 -0.718831 1.355998 126 131 227
-3.146769 -0.482014 4.525424 41 49 47
0.906853 -0.665591 1.469094 236 241 243
0.270127 0.797230 3.642380 49 47 64
1.252432 0.916639 2.786722 65 63 76
1.443941 1.052872 3.250877 62 59 76
-0.863097 -0.949092 4.544255 72 84 88
1.162130 0.935506 4.357299 192 194 131
1.098905 1.658631 3.163324 193 209 116
2.543123 0.245024 4.352190 183 188 198
1.668988 2.150187 3.972041 67 64 74
1.863995 0.942915 2.101242 242 238 239
-0.033000 -0.053472 0.632522 51 49 64
-0.134394 1.225440 3.611372 138 117 122
1.245395 0.857107 4.166659 217 211 162
-0.279483 0.575311 3.293208 52 57 61
1.708532 1.359795 3.741616 190 207 118
-0.257965 -1.202055 3.724396 88 79 131
-4.355817 -3.770606 5.998917 58 61 115
-0.347367 -0.959877 5.434312 90 82 125
-1.529832 1.398823 4.393397 30 34 37
1.948538 -0.134883 4.354292 240 241 238
2.213274 0.852148 3.084456 130 138 139
-2.845072 -2.171969 4.136291 239 245 242
-2.720733 -0.306616 3.559385 60 68 56
-3.104457 -1.827074 4.190648 150 193 119
1.835360 -0.152577 2.910687 217 219 240
0.227139 -0.357265 0.792544 93 94 178
-1.698399 -1.981211 4.100768 188 205 248
-0.369422 -0.664964 1.338771 167 172 176
-2.275935 -2.663067 5.608124 154 155 171
-0.303913 -0.456079 0.743516 186 195 235
-0.402781 -0.557648 0.969775 228 241 243
