ply
format ascii 1.0
comment author: Alexander Kryvonos
comment object: reconstructed scene with color
element vertex 216
property double x
property double y
property double z
property uchar red
property uchar green
property uchar blue
end_header
-4.297046 -7.061954 11.724050 252 254 13
-3.096699 -5.289341 10.767948 245 249 152
-1.238602 -6.059342 11.303935 237 202 23
-1.269968 -2.674646 10.029677 98 94 94
-2.502261 3.720706 7.387780 54 52 57
-7.702237 -6.722665 10.673936 127 73 30
-1.597602 -6.446620 11.344507 90 85 43
-3.820531 -7.192726 11.798407 254 252 16
-1.476433 -2.463069 10.045650 241 250 101
-4.398391 3.090601 7.717021 89 92 101
-2.616638 0.100360 8.169312 241 245 232
-0.997559 1.863998 7.938356 244 250 145
-3.362961 -7.052396 11.706114 252 250 18
-2.242337 2.856941 7.409792 126 156 158
-4.361288 -7.163935 11.901566 253 254 12
-3.856485 -0.969273 8.093378 244 248 184
-4.831896 2.863992 7.788809 88 89 101
-4.391980 -7.057925 11.687959 253 254 14
0.130992 -4.777856 10.345331 89 90 77
-5.041163 2.870815 7.827792 245 250 121
0.131393 -4.786725 10.373493 89 89 77
-1.352126 -6.015941 11.367146 231 200 34
-4.875515 3.256250 7.718326 245 249 173
-3.828698 -0.963410 8.034899 243 248 184
-7.328657 -6.513309 10.600858 117 60 25
-3.254873 0.865584 7.966785 82 38 38
-1.414999 -2.350329 10.054152 250 253 98
-4.132764 -7.492300 11.839903 164 133 39
-3.245432 0.865486 7.943217 82 38 38
-2.692142 -0.518770 8.363641 242 246 207
-5.102847 3.002715 7.851035 245 251 125
-2.353757 -0.353566 8.280871 242 246 212
-2.528033 3.738152 7.371434 54 52 57
-5.253765 -5.327131 11.051745 255 242 16
-1.267423 -2.663869 10.010404 98 94 94
-1.458777 -2.419643 10.057995 246 252 109
-5.783637 -4.398825 10.947216 253 252 22
1.018815 -1.024207 8.789068 88 89 105
-6.916839 -3.312403 10.730493 254 250 25
-3.923958 -0.749568 8.061562 138 118 162
0.786262 1.777295 7.934504 120 147 145
-4.312298 -6.727760 11.611211 253 248 9
-3.174645 0.852994 7.768680 84 38 38
-3.599426 2.534586 7.417519 109 132 131
-7.428330 -6.025405 10.830929 241 244 242
0.785561 1.774007 7.927094 118 144 144
-4.530851 3.537997 7.554849 207 223 125
-0.805717 -0.553199 8.231062 253 221 54
-4.142570 0.139585 8.274202 252 212 71
-5.779623 -4.493085 10.945466 252 254 28
-0.720684 -2.493541 9.999765 119 112 107
-0.632335 -1.579821 9.619945 136 118 92
-4.760757 3.700789 7.647662 110 108 83
-3.669684 -6.809904 11.658345 99 86 46
-1.418565 -2.359506 10.078857 250 253 98
-7.223673 -6.043799 10.860773 241 244 241
-5.796346 -4.991942 11.044604 254 232 14
-6.104293 -5.506109 11.519980 254 246 16
-2.702251 0.221331 8.112668 252 253 64
-2.281216 0.202959 8.095062 242 248 179
-5.829352 -5.031568 11.101794 254 232 13
-0.800063 -0.561438 8.173263 253 221 55
-5.640144 -5.959481 11.379903 254 234 14
-8.142230 -3.150872 9.757826 108 58 26
-6.518092 -4.147302 10.857779 253 253 24
0.005755 1.860061 7.899692 71 73 80
-7.273757 -6.516761 10.787928 115 65 25
-3.799937 -0.757465 7.950802 135 118 163
-0.970877 -2.531209 10.078791 248 251 118
-4.347630 -1.353248 8.261654 249 240 52
-7.116647 -4.185707 11.070085 254 248 20
-3.739440 2.094244 7.326263 110 114 120
-0.622159 -0.553847 8.185105 133 34 25
-7.572273 -5.970196 10.785154 240 244 242
-1.330257 -5.940446 11.164882 236 200 25
-1.735349 2.604150 7.511168 107 108 101
-2.938638 0.548178 8.002529 251 253 57
-3.009408 0.626203 8.041887 254 189 41
-4.108300 2.812355 7.670080 77 77 85
-6.543942 -4.154285 10.904825 252 253 22
-6.530980 -4.120782 10.892815 252 254 19
-0.041385 1.538324 7.906364 126 150 154
-0.812512 -1.589805 9.660648 118 95 76
-5.103780 2.044618 7.603821 47 53 64
-5.792570 -4.309800 10.953816 254 245 30
-5.320741 -5.376472 11.202250 254 241 17
-5.765760 -4.511329 10.942247 253 254 26
-1.176480 1.726498 7.936448 77 75 81
-4.980622 -5.985215 11.416935 255 245 12
-4.046637 -6.226112 11.529917 255 226 20
-3.178967 2.386184 7.292760 75 78 78
-2.855052 -5.088609 10.753774 247 251 129
-7.312056 -6.041969 10.857913 241 244 242
-1.313249 2.329628 7.573679 109 104 97
-2.263958 0.218480 8.032507 242 246 200
-6.010503 -5.823343 11.284626 94 76 26
-2.280789 0.202984 8.093546 242 248 179
-1.238160 2.111815 7.871067 241 245 227
-5.463162 -5.788004 11.013768 254 234 15
0.107792 -3.379437 9.848023 107 110 101
-7.959676 -3.376706 9.816470 240 244 241
-2.938660 -6.218107 10.826560 92 83 48
-0.019762 -2.317293 9.583730 63 60 59
-6.711572 -3.285499 10.594756 253 249 21
-7.554689 -6.130903 11.013269 241 244 242
-4.051518 -6.750487 11.672132 89 58 18
-7.138201 -5.828909 11.265518 121 76 28
-7.346830 -1.296823 9.610511 124 115 100
-3.011406 0.627118 8.047154 254 189 41
-6.166468 -6.559779 11.416418 253 213 19
-4.051664 -6.760118 11.667178 92 62 21
-4.928351 -5.903835 11.307198 255 246 14
-3.589120 -6.566476 11.609030 97 89 49
-5.492041 -5.818908 11.071800 254 234 15
-6.594782 -3.245812 10.404467 253 249 23
-3.483353 -1.427034 8.176251 240 248 161
-1.853979 2.454218 7.340880 98 97 95
0.006094 1.873720 7.991557 70 71 79
-4.697689 -0.875582 8.157095 248 211 78
-3.826064 -0.762954 8.005430 136 122 162
-5.995605 -5.794647 11.264454 114 93 35
-6.237722 4.088537 7.437069 241 238 81
2.264003 -2.844719 9.057667 250 247 62
-3.918077 -0.799069 8.195511 138 117 152
-1.822702 -2.340713 9.999383 110 100 88
-1.674032 2.360978 7.601037 105 102 91
-7.153562 -5.835899 11.292581 120 77 28
-4.144829 -2.559042 9.850794 245 250 145
-6.346101 -3.107309 10.017601 253 248 29
-6.004605 3.925403 7.662451 50 46 47
-2.054229 -2.337320 9.910039 104 91 82
-3.858627 -7.248891 11.924810 254 252 16
-3.762911 -0.384091 7.937893 142 128 165
-3.936350 -1.651763 8.736333 243 248 174
-5.024790 -6.054689 11.276076 254 233 15
-4.228530 -0.877791 8.058241 243 246 91
-3.598466 -6.642717 11.452268 96 87 45
-5.116339 -6.144497 11.730204 254 246 13
0.001235 2.219623 7.119530 136 142 126
-4.876414 2.455405 7.960957 46 46 52
-3.104726 1.971070 7.195819 134 140 138
-6.583721 -3.454388 10.863242 254 245 37
-8.850265 -2.619320 10.196908 228 168 33
-4.753586 -0.549566 8.065101 242 246 228
-6.359240 -4.127283 11.201755 254 247 24
-5.679867 -5.796279 11.661002 132 105 26
-5.464991 2.774323 7.875215 98 119 116
-8.025436 -3.557880 9.845379 241 244 242
-4.171841 -2.557968 9.920602 245 250 155
-4.744497 -0.552242 8.049305 242 246 229
-6.140117 -5.540230 11.586748 254 246 15
-6.439634 -3.388189 10.622400 254 246 25
-3.721894 -0.386213 7.851085 144 127 166
-5.461025 2.769687 7.870575 98 119 116
-4.134102 -1.304846 8.234408 246 252 70
-3.870154 -1.252680 8.182964 247 252 76
2.760044 -3.504807 10.063874 251 253 68
-1.768335 2.427603 7.527626 105 105 99
-5.286051 2.624202 7.823691 75 78 88
-2.175108 2.718312 7.313658 120 157 155
-1.088138 0.382915 7.647068 81 63 62
-4.799614 2.831459 7.742974 87 88 100
-8.657759 -2.184992 10.409185 66 48 22
-2.076454 -1.967101 9.664047 251 253 77
0.625132 1.159329 8.017072 87 83 95
-0.928991 -0.504639 8.153637 254 231 51
-1.092980 0.376624 7.681814 80 62 61
-3.068095 0.380956 8.044973 254 168 39
-3.188497 2.374156 7.322893 72 73 76
-3.631492 -5.053086 10.637551 111 109 93
-2.918020 2.460000 7.258683 115 144 143
-1.074594 1.255486 7.510569 137 167 168
-5.729232 -6.048645 11.562372 254 234 17
-5.049519 2.922714 7.806935 245 250 123
-5.212811 -6.255473 11.954088 254 246 12
-2.908553 2.448952 7.236511 115 145 145
-5.556777 3.183857 7.924517 96 96 103
-4.678849 3.795483 7.651787 88 88 87
-4.520453 -0.330919 7.967276 235 194 66
-0.058411 -2.346137 9.967219 79 73 73
-4.272022 -1.700290 8.437610 244 246 95
-1.899047 2.493481 7.528911 92 93 93
-6.205997 -5.624161 11.695670 254 245 13
-5.738350 -5.860927 11.778324 125 102 25
-3.042801 -1.248641 8.401894 241 245 227
-3.893365 -1.746137 8.264566 253 177 40
-6.086559 -4.383606 10.858823 237 206 39
-1.979841 -1.713014 8.850614 248 251 119
-6.048653 -3.908549 10.731714 250 233 20
-7.417256 -3.105192 10.362378 255 238 27
-7.068064 -3.740275 10.886767 231 194 22
-7.272182 -1.264564 9.473004 121 111 100
-6.080059 -3.558586 10.665741 144 113 50
-4.515389 -0.323334 7.958595 236 193 67
-3.356307 -1.784238 8.316985 241 244 242
-2.720040 -0.549782 8.448291 242 246 211
-3.127665 1.956645 7.260105 139 144 138
-6.108892 -4.935192 11.049040 255 237 14
-0.715171 -2.495936 9.920242 118 113 108
-5.297125 -6.330609 12.160446 254 245 12
-6.667520 -5.691612 11.503790 251 215 19
2.260025 -2.830553 9.044603 246 240 67
-5.318615 -6.183534 11.506374 255 239 13
-3.690928 -0.408569 7.783745 139 124 160
-6.124899 -7.480009 11.999998 85 63 16
-1.871509 -2.002280 10.231168 247 250 140
-3.109707 1.932181 7.222739 142 147 139
-1.770072 -1.885348 9.678771 245 250 154
-2.030314 -1.890451 9.428652 249 252 105
-9.021688 -2.300422 10.840889 64 47 20
-3.388892 -5.802285 11.775569 246 251 133
-9.276302 -15.235151 32.134414 250 246 77
-15.653481 -23.267777 50.145767 249 238 81
-15.480084 -22.797055 49.145467 249 242 83
-10.423260 -17.158466 36.100292 225 196 88
-15.607409 -25.134035 53.262763 249 248 78
