ply
format ascii 1.0
comment author: Alexander Kryvonos
comment object: reconstructed scene with color
element vertex 527
property double x
property double y
property double z
property uchar red
property uchar green
property uchar blue
end_header
14.245609 24.686856 56.669624 168 175 128
-25.381340 -10.157011 47.570222 216 223 184
-23.485258 -6.639443 47.443077 51 46 30
29.026650 -5.885212 50.387084 120 111 96
23.958499 21.763820 52.113921 123 92 140
14.901234 22.036785 56.498549 59 44 54
-24.761514 -27.539998 47.574075 210 221 177
-8.738494 30.377243 56.500720 179 58 66
-20.231299 19.388531 49.158310 252 108 46
-15.500471 -34.594133 52.117799 212 221 175
-22.980494 -10.235991 48.408902 220 224 178
-17.163560 16.818707 48.636665 218 219 175
-23.587573 -5.731691 48.535809 221 223 178
-23.268037 -3.348539 48.370684 221 224 178
-8.629429 25.321717 56.687518 152 165 124
29.573771 24.169956 49.629876 226 227 187
-19.346812 0.030108 51.559601 221 222 177
-5.917562 4.945825 57.763471 166 179 136
0.752444 -47.861758 62.321577 214 220 174
-24.177946 11.133614 48.311498 198 197 151
3.254667 -42.716282 61.322306 218 224 188
0.948830 18.185892 44.508391 186 118 49
0.821370 23.406992 44.278416 165 92 47
16.043928 23.187541 56.076833 160 167 120
15.985422 23.706647 56.382663 165 172 126
1.478043 5.581645 45.206778 183 113 67
-20.910435 13.929023 51.045108 230 72 108
25.686480 7.382689 51.193750 109 168 203
-20.395751 18.746915 50.629624 229 69 106
-16.562456 -20.697585 51.487384 214 223 176
-24.288464 23.473755 47.925140 213 98 47
-24.373534 26.916870 48.641476 217 219 175
1.230806 15.003709 44.955968 176 106 60
26.102874 5.220270 52.053739 112 169 203
3.782920 27.083908 44.395252 135 67 28
-8.099606 -38.851612 56.802921 255 93 66
23.977259 23.438205 52.339748 223 229 188
-20.087736 -23.887022 50.415527 255 170 57
23.787654 -33.384194 52.007057 230 234 197
-27.370409 14.952561 50.146343 207 214 188
1.590969 20.322884 44.498047 176 100 50
31.240863 20.377619 48.421723 226 229 190
-23.052312 -7.786424 46.998127 53 48 31
-20.420788 -14.524142 51.101295 255 168 54
-17.735724 -34.257674 51.019663 212 220 175
25.817814 2.586132 51.710384 114 172 203
-24.808193 11.132595 47.815512 216 217 171
-25.572111 -6.487920 47.654214 213 220 184
13.141200 26.156387 57.553103 154 160 120
-25.096810 -15.775109 47.183657 215 225 182
-25.553772 11.408358 47.177981 219 222 179
-25.426950 -34.141952 47.472494 169 182 176
29.826577 26.386892 49.457952 225 227 187
-11.973411 21.860060 55.158715 191 203 183
-11.956692 0.557166 57.794398 220 222 175
-19.057486 24.625742 51.560508 213 216 171
29.279587 -4.967906 49.730799 238 238 206
-24.865276 19.638993 46.972293 217 219 178
-21.931736 8.153699 49.258121 222 223 177
-19.222504 24.112357 51.108326 215 217 173
-23.845855 -17.726349 48.217930 216 224 177
28.108145 -1.409423 51.360419 237 235 200
30.019406 -9.651158 50.065288 237 238 206
-22.988385 9.638023 48.478736 183 152 49
-24.992162 19.154999 47.819387 217 219 175
15.217475 -38.747020 56.701257 255 237 104
12.435832 -23.060133 58.077385 235 239 206
25.397808 13.471491 51.866581 228 232 194
-15.679315 23.268754 52.449607 188 193 149
25.898340 8.682642 52.032420 230 234 195
16.629521 24.703472 55.899039 164 171 123
-9.819654 2.139086 56.388697 167 175 134
-7.802462 28.100263 56.887627 152 168 128
-13.521622 -37.961285 53.488266 210 218 173
-13.899401 -38.197532 53.638280 212 219 174
-25.796495 -2.065903 48.728183 213 217 174
-25.466756 1.557573 47.336263 219 222 178
-8.054223 7.066105 56.871370 113 121 88
26.082076 0.616626 51.884686 234 233 199
31.350756 18.687124 48.539100 227 229 191
26.414684 -29.973701 51.869228 151 232 181
-24.922249 -15.148563 50.957496 218 224 178
-18.413950 -39.132527 51.539462 208 216 171
-23.431501 -31.968910 50.593246 211 217 170
-16.636434 -33.021501 51.399552 212 221 175
-27.674087 15.968452 50.456141 195 206 191
17.557323 1.801822 56.205359 172 175 125
-0.816585 -41.915562 62.050443 255 116 74
-17.171146 16.913027 50.164650 219 221 175
28.225879 26.692577 49.864913 216 217 174
25.332171 10.989339 51.742248 229 233 194
28.471886 26.808432 50.177158 220 222 179
-9.372957 4.970820 56.511536 41 42 28
26.452944 -23.985805 52.132325 147 232 179
20.406970 23.768602 52.512385 220 225 182
-8.817630 2.033738 56.770453 166 176 134
25.635544 21.414975 51.762840 224 231 191
9.964601 17.701424 53.574560 229 236 198
12.069373 -17.344781 58.433229 132 116 94
23.020197 -31.548908 52.094563 231 234 198
-21.621270 14.043561 48.977249 187 188 146
17.400253 -39.025121 57.455090 229 235 197
13.577337 -26.171297 59.809207 232 237 201
-20.708345 -18.385597 50.081764 215 224 177
-11.218258 -40.368104 56.034439 215 220 175
13.140440 21.826949 54.387153 74 50 72
-22.642749 -17.739763 48.305082 216 223 176
26.803050 -8.052079 50.746586 235 235 200
-22.680444 -21.239969 48.702648 163 179 146
-20.401026 -4.614365 51.348651 235 74 110
-9.312901 -41.227246 56.215645 214 220 175
-20.009713 -5.797192 50.156354 219 223 176
26.865167 9.201327 52.047525 231 233 195
-20.044440 -22.671386 50.495893 214 222 176
-21.318521 -8.155890 50.446726 178 181 137
-24.571686 3.068862 51.754671 221 222 175
10.018490 13.839965 53.048317 231 236 199
-8.118805 28.034624 56.480579 151 167 127
2.165987 20.528739 44.321711 154 78 41
-20.552128 -22.574726 50.701779 215 223 177
28.921972 0.490051 50.238420 236 236 201
8.994164 25.416490 50.469756 233 239 203
15.472614 -39.046666 57.233880 255 237 104
27.321405 6.720760 51.001845 232 234 197
-24.775652 -33.341734 47.373184 208 218 173
25.967340 1.297155 51.942284 236 236 200
14.181252 31.775659 56.394716 163 170 128
22.173172 23.332344 52.156529 220 227 187
-7.219289 5.352900 57.998980 44 45 29
-23.968413 4.304590 47.811794 233 217 175
-14.559743 20.837375 52.353266 197 209 189
-22.686059 -20.086736 49.155856 183 190 149
3.360031 -45.053990 62.829651 232 241 206
-23.052033 -13.207609 48.588657 218 223 177
26.008864 -15.663850 51.539401 156 234 182
29.848011 8.727066 50.116700 233 235 197
26.508433 -9.600180 51.863677 238 238 205
-9.492641 24.154220 56.380248 144 114 88
-18.425462 24.118418 50.140388 213 216 171
18.852782 -43.020366 56.114499 167 150 124
-19.983821 -10.412785 50.477451 217 223 176
25.801445 -5.206529 51.688349 238 238 203
-22.107765 -1.168139 49.678229 204 206 164
-0.253958 25.468655 44.598482 231 180 111
-23.717130 12.936773 48.573939 212 214 170
4.134378 -48.415579 62.485062 109 98 80
-20.828151 -22.032306 50.119158 215 223 176
8.733293 -5.792920 50.754555 232 234 200
16.168634 31.243056 50.740393 110 115 98
28.337373 28.363785 50.180621 212 200 166
-17.867156 -34.194378 51.666487 212 221 176
-7.322217 25.682687 56.905049 164 86 79
-28.603662 15.946343 50.620980 198 203 197
31.642585 17.610994 51.644464 228 230 190
-24.442597 26.555125 48.742877 215 216 172
13.281992 2.879543 57.624565 178 180 135
-23.918370 20.579156 47.275230 242 112 54
30.008311 28.332398 50.847246 227 231 191
16.352055 27.433262 55.771650 75 116 97
27.832633 25.499878 49.584749 213 199 162
-25.160129 -11.733987 47.203728 218 225 184
-21.958195 -17.539742 50.284884 179 184 140
31.890760 19.402477 51.784975 228 228 186
26.422910 9.070508 52.112060 230 234 196
27.862853 -21.873284 52.492090 237 238 204
-19.569256 -38.551468 50.367092 208 217 172
-0.914908 -43.395301 61.258535 217 224 176
-19.140107 24.361693 51.054865 213 217 172
0.757049 27.834272 44.451513 246 222 181
-17.878092 0.222590 49.110095 221 223 177
9.617954 0.897904 52.674682 236 239 206
-16.874870 -33.142173 51.074301 213 221 175
-18.355995 -3.224118 49.798748 221 224 177
-0.293206 25.199389 44.314056 233 183 116
-9.055768 3.109868 57.458696 165 176 134
30.635086 9.087014 48.721456 231 233 195
-19.427551 18.193281 51.482361 219 219 175
22.492289 24.165496 51.838186 208 214 175
26.157143 27.513527 51.418514 224 230 189
-25.795772 17.305327 47.449867 218 221 178
2.156421 -12.656394 46.613926 187 119 69
25.598976 19.420119 51.676843 101 161 196
22.252734 23.475559 53.045279 221 228 187
-14.228563 15.682930 53.817555 218 219 175
-24.460020 27.129001 48.396737 216 219 175
-2.678931 15.928903 49.674268 210 217 170
22.376866 -1.030435 51.742218 235 234 190
26.577632 -2.638160 51.315119 238 237 204
-14.286850 -38.173736 54.255455 211 219 173
22.121112 24.983440 52.352363 192 198 159
31.391166 6.874959 48.382788 236 235 201
-21.930030 23.685357 49.620844 200 173 135
1.187122 14.735999 44.637134 177 107 60
15.756865 -20.941181 56.448278 229 234 195
25.790661 2.517963 51.099759 119 172 202
27.463423 -21.932947 52.358876 236 237 203
4.200308 27.163345 42.560298 252 223 191
12.181531 -42.896241 60.214316 231 237 201
26.457332 -34.206951 51.732421 137 228 172
0.685699 27.251769 41.460630 252 209 181
-30.629969 -1.159528 57.119216 201 207 178
-20.642430 20.294308 49.318714 227 85 34
4.753828 -42.794544 63.201250 239 244 216
-5.499684 -39.109858 56.271829 255 105 72
29.214338 -20.980158 52.178301 137 213 225
32.208402 22.335164 50.511499 224 227 188
-25.593708 23.793087 48.471547 213 216 173
-25.358641 -4.250305 47.367050 219 224 181
23.799176 20.719549 51.221406 124 94 141
-15.424242 -38.995721 51.613947 170 177 131
17.390511 -12.733775 57.405761 180 181 133
-17.805292 18.313487 56.443324 218 220 175
15.111400 -20.235318 56.957404 231 235 196
23.623303 -33.015120 52.104963 231 235 199
-22.025818 16.124949 48.797540 200 201 159
-1.146126 26.838266 44.363925 131 86 49
30.920520 -38.338655 50.033379 108 171 187
8.785324 2.579897 51.795808 236 240 207
13.110098 -20.963702 58.655552 235 238 203
-23.893452 19.313663 48.370426 255 116 50
-20.897002 12.579877 51.358851 220 221 176
29.390927 10.165278 49.408086 207 205 139
0.775676 -13.736174 46.722910 244 197 130
2.149197 -14.298288 44.993308 182 110 58
-8.229719 -42.583782 57.235044 194 199 159
3.669855 -8.396604 45.479661 191 154 109
29.009136 -17.740383 49.561288 203 204 181
15.159535 32.754989 56.637879 105 127 124
0.183056 -11.927431 47.161862 243 190 118
-22.402427 -19.776755 50.310448 136 170 147
14.498425 25.257691 57.160599 169 175 129
-16.266861 18.319749 58.770655 217 220 175
16.582566 25.785064 55.913176 163 170 123
1.119875 27.657263 44.202799 246 221 179
24.921354 25.163614 51.944988 177 181 143
25.389071 -37.393820 53.556259 254 236 109
32.107823 14.766354 49.521326 229 230 193
1.807309 21.572836 44.598902 174 98 47
28.353074 -9.130309 51.045150 239 239 207
-20.355341 0.498118 49.804677 235 75 112
-26.039569 18.026620 46.945024 167 183 184
28.387843 18.632280 51.272742 228 230 191
-19.320824 23.234300 50.655083 215 217 173
6.313246 6.093791 47.242410 213 162 94
23.863770 -32.927073 52.125112 231 235 198
-4.765771 -38.400068 56.197490 226 87 57
-6.803364 32.142918 51.504193 250 230 192
-23.798976 7.948686 48.046028 206 207 161
-21.024956 27.288482 50.846853 216 217 170
-7.365510 24.413461 58.613311 151 166 124
11.800772 -19.473912 57.294336 238 241 209
18.290222 24.949121 53.652480 31 125 127
-20.182673 0.752958 49.302011 195 64 86
3.601698 0.110473 47.352143 185 117 69
-3.633151 -14.958888 49.984009 217 224 176
31.517582 8.590138 48.538321 233 234 200
16.837294 -20.866814 56.219782 144 144 114
-30.765128 0.973842 51.513748 234 221 200
28.934520 13.058414 50.298588 230 232 194
8.853045 14.747934 48.422161 230 236 199
24.871219 -36.870399 52.441221 254 237 112
20.054938 21.308570 51.753646 121 88 139
29.270163 -2.859623 48.482219 239 238 207
6.320838 -10.297835 45.384367 224 172 102
26.140233 -11.512012 51.890168 155 233 180
29.847635 4.368097 49.986266 236 236 200
2.189180 19.968249 44.739090 152 77 41
-24.320600 22.318734 48.013874 227 105 51
-17.003268 23.785653 48.376245 214 218 172
27.448623 -5.593862 50.757458 237 238 205
3.920305 -14.446748 45.107167 196 123 66
-23.434600 23.574333 48.156348 225 88 37
-22.465805 25.540927 44.268858 211 216 181
-20.311844 21.000515 50.194617 241 103 46
1.744461 -5.282130 45.283249 187 120 75
-19.388670 -27.588664 50.599015 255 170 57
26.038907 27.453235 51.123166 224 230 190
-15.859108 27.318880 52.669361 211 216 171
-15.254425 -37.235048 52.306901 255 87 55
-20.595886 -31.749031 49.085023 203 210 163
-7.432541 -12.112633 55.936064 167 180 138
23.728431 30.126409 52.016345 229 236 199
-24.048359 -9.124206 48.435067 54 49 31
-26.580175 21.112593 50.094958 216 220 178
-25.596695 19.800298 48.398926 217 220 178
-2.869991 -45.029873 61.628259 194 198 157
14.167749 27.643151 43.775980 253 233 194
3.436376 8.760229 44.906676 190 112 60
-19.542936 18.607492 51.371148 218 219 174
-12.378790 26.630157 50.970023 218 221 175
-6.239921 -1.750763 56.411937 107 114 79
-21.562249 14.342256 48.689784 219 218 174
-20.145023 -23.881984 50.409775 255 170 57
-6.879850 22.667999 56.481525 154 168 126
3.378338 -11.963744 45.366825 194 124 74
-4.650780 4.652314 58.864387 150 161 119
-20.930347 1.774136 48.460329 223 224 177
26.142264 -11.466457 51.983605 157 234 181
31.311078 -25.871654 50.012889 236 238 204
31.484472 -3.185465 48.318574 238 238 207
25.267440 -7.547703 54.975088 238 237 203
-14.788100 -7.492790 45.571517 219 225 177
12.784208 28.638889 45.492583 253 232 191
-9.930515 23.120483 55.449773 157 168 127
13.959057 33.868221 58.422051 109 132 133
14.442353 17.769768 58.660068 162 167 123
-13.769771 -39.169861 54.398339 212 219 173
-19.825352 -11.455314 49.069502 255 170 55
-3.059757 7.771340 56.984793 206 213 167
18.051300 27.459644 56.135283 125 133 94
31.747620 0.967584 48.736742 238 238 207
3.843678 -14.315178 45.475772 197 125 66
27.452693 -15.620398 51.451225 238 238 204
18.376870 -39.844459 56.227487 208 214 177
-21.296266 14.136467 51.992040 230 72 108
19.888243 22.260345 54.738628 205 211 170
2.924049 28.100789 43.660609 253 174 162
-15.972390 0.174451 43.265371 221 223 176
-5.898424 33.346653 54.928742 128 143 127
16.221011 -18.381226 60.528376 232 235 196
-8.141741 4.170442 57.719820 164 175 133
2.684832 10.029364 44.667703 179 103 55
-24.729413 12.629905 45.514226 221 223 182
-1.240900 29.070844 48.035040 131 85 48
-21.608218 7.595552 48.276349 222 223 177
30.441453 -17.213563 49.254361 241 242 213
-23.629084 -25.785959 49.653854 213 221 174
15.851779 31.351079 54.101393 109 128 121
-21.126177 -15.160676 48.944581 184 189 144
-9.982032 26.755665 55.954521 155 169 129
-21.593443 11.258690 48.563931 220 222 176
17.547621 26.692737 54.916069 149 156 111
2.347666 27.011836 47.505094 165 93 48
26.823891 -38.525332 51.656681 206 210 172
8.129891 6.749296 50.428005 234 238 204
31.794143 6.496299 51.832562 235 235 199
10.338405 -0.053923 53.433276 235 238 204
4.531372 -15.712893 56.219806 193 127 77
-7.949744 3.849281 54.351656 164 175 133
19.761069 -1.645988 46.888046 235 234 190
-18.808681 27.410668 41.905681 180 139 100
14.432675 21.733548 49.686368 164 171 124
18.194843 23.334960 56.164366 147 153 107
-12.858680 25.974694 54.529894 214 217 172
-20.873597 -4.623841 51.733279 235 75 110
6.026102 9.229122 47.067370 214 161 95
15.571087 -21.118119 57.002126 230 234 196
-16.914045 26.385087 50.405007 217 220 174
-18.824959 0.149717 50.997129 221 223 176
-21.290450 -18.052438 48.710836 97 175 168
-4.555971 0.264292 60.305596 168 180 136
-9.302247 31.786818 53.318484 189 183 156
16.784088 30.259261 52.946228 148 153 106
-24.340861 6.740938 47.515750 158 151 107
-23.706404 -27.841186 51.184275 213 220 174
30.424312 -12.721838 49.167496 238 239 206
27.489605 18.752770 51.762663 214 217 180
0.221027 12.885885 45.194923 241 188 118
-22.042140 25.187807 48.334948 242 102 47
6.658119 -41.872178 62.400054 255 245 139
1.983154 4.291879 44.215887 188 118 68
0.227214 13.336860 46.684331 241 188 117
18.039959 31.648302 54.654754 134 147 122
3.273706 -11.954459 45.915180 197 128 78
-16.853221 24.968530 49.640710 214 218 171
0.346434 5.582173 44.143331 246 196 128
26.076129 14.997698 52.016726 103 163 199
-5.909550 -42.601913 62.210160 255 106 75
-20.058056 -29.414346 50.287329 187 115 39
7.838555 -4.989752 45.725864 234 236 203
1.572525 29.753791 43.489286 251 223 189
4.948797 20.435989 52.111409 223 162 87
-21.327520 -34.501601 50.131954 211 219 174
-19.913084 19.671052 44.346911 212 187 150
30.667803 -23.845289 48.521162 237 239 207
21.797664 23.145964 56.260107 122 89 139
2.836300 27.991582 44.729237 241 215 172
15.611906 33.685124 59.232322 158 165 125
-2.167266 20.630011 41.508663 215 220 175
-9.346835 25.833552 61.893062 145 154 117
25.610254 31.803133 59.185871 224 231 190
31.199353 -2.322815 49.074333 236 236 201
-10.243391 30.572121 53.440861 107 138 141
-24.909005 -23.186031 47.041920 210 222 177
-17.679307 21.542886 53.676432 199 209 190
-9.081394 24.101117 54.828296 170 70 69
11.623300 21.141053 58.189115 225 232 192
21.853491 -37.187453 53.657972 254 235 102
11.517316 27.208286 56.792921 221 229 188
31.672420 12.879744 48.814449 231 233 197
14.816227 33.874103 58.780922 120 139 129
27.475048 26.450305 49.878219 224 155 120
-20.906219 8.772126 49.227554 194 196 154
-22.982802 -19.853648 51.844501 63 186 191
6.550959 27.503149 42.143616 255 112 117
-7.444412 22.202088 45.795858 150 89 75
2.570945 20.522538 44.203133 162 87 48
2.790558 4.357268 44.610254 201 127 69
-21.613335 -37.376327 49.729023 246 78 51
26.232347 6.868897 49.635842 232 234 196
7.983251 -45.314093 62.518930 215 221 186
28.917551 -7.133448 49.442298 237 237 204
23.232293 -38.796162 51.758749 200 205 169
2.770793 28.430298 42.251849 247 182 161
-20.255586 23.815998 50.706463 254 109 50
12.609137 33.476378 54.855200 141 144 123
25.019719 20.922048 50.512096 224 231 191
18.479143 32.609236 53.907611 188 179 150
-12.560220 21.459375 53.689717 200 209 186
8.055292 6.172405 48.683532 234 238 203
10.326927 22.830596 57.139441 146 99 151
-6.168907 -43.385839 60.305122 214 221 175
-24.737041 -21.530888 46.755300 213 224 180
14.155084 29.496308 42.222956 254 114 120
-8.331751 31.136449 54.841284 111 138 135
9.426326 -38.095208 56.386703 255 242 120
18.852418 28.155119 53.132528 181 187 142
6.741044 27.117528 43.479956 228 212 172
19.133385 21.386593 55.715064 142 146 106
9.125549 7.282202 55.631832 234 238 204
24.114754 14.514778 39.353409 229 230 189
-24.218062 20.540206 48.186496 254 117 52
27.698360 -23.769014 50.794522 235 237 200
4.357855 -42.692009 63.963027 238 243 214
-20.143750 -23.025594 50.791345 213 222 175
-1.232650 29.805347 44.947552 253 237 205
-20.823212 -17.240966 52.299456 255 169 55
-17.595906 27.463517 52.426082 217 220 174
-22.284657 -2.692906 50.206418 197 197 151
19.169964 26.136669 56.239741 31 125 127
-12.090075 4.232867 56.501005 176 176 134
26.695715 -38.558324 51.396491 226 230 192
-24.204860 18.521064 47.834115 193 95 50
-4.517895 -4.259916 61.939740 168 181 138
18.175428 25.165243 50.884596 188 195 150
-18.795398 27.554362 38.358749 205 159 118
-20.800874 -18.412845 51.033084 216 224 177
-2.223488 17.084102 49.164212 214 220 174
6.795082 16.855441 46.793395 230 236 197
-2.593059 16.636954 49.056463 210 217 171
6.236106 -15.026529 46.749498 200 125 64
25.298975 -20.170756 48.249780 236 237 203
-2.019065 16.984579 47.767598 214 220 174
-2.662039 19.158044 59.360013 213 220 173
-17.950617 11.922987 43.824950 230 71 109
45.610808 33.667418 54.520686 201 184 149
26.686337 15.656929 50.241055 219 220 183
4.081152 -12.618967 47.481132 180 113 71
-1.572422 5.843417 55.895388 218 221 174
7.672111 30.851974 49.493908 220 209 172
9.963719 22.035249 55.126911 145 98 151
25.228701 24.042263 51.826757 223 229 189
-8.223529 25.646281 58.462928 144 104 80
23.652916 26.255831 55.031715 195 201 162
-28.053165 29.242989 63.253505 200 172 133
-25.126352 5.532461 46.483047 219 221 180
-23.628313 -26.918252 49.726853 213 221 175
0.153171 2.931439 46.856265 248 202 134
0.736534 28.463550 42.522372 254 232 201
-7.751325 -13.237100 60.186468 168 181 138
21.948248 -40.105256 58.240256 227 234 195
-22.641750 -3.115816 47.026543 221 224 177
20.811003 28.839149 58.248058 185 192 146
7.727808 11.512817 50.774817 233 238 202
7.891962 1.601335 45.220241 236 240 207
-19.637441 20.649096 51.641088 200 210 191
4.058933 25.674852 44.347694 201 147 78
11.542861 27.708635 57.880526 224 231 190
18.349794 30.562977 48.636853 247 222 179
0.196173 -13.042418 51.373838 243 190 117
28.161175 -11.252434 50.324459 239 239 209
-21.351774 -21.826965 49.892651 215 223 177
0.253475 14.868437 52.354214 243 191 122
22.520319 25.461648 53.287241 196 203 164
-1.732729 6.462442 59.384998 218 221 174
-21.709795 -33.447625 50.072654 189 196 151
8.623463 -14.645808 54.351739 234 224 187
10.850418 32.873623 58.842160 234 239 208
13.682425 -24.666614 61.104717 188 187 158
7.894400 20.776785 52.290515 229 236 197
-5.593138 -39.367498 56.963104 255 105 72
-13.787477 -17.192267 42.871134 214 223 176
2.063841 39.069167 57.201851 252 199 176
-24.021755 31.250257 58.026318 215 217 169
-2.674904 6.926295 49.146925 207 214 168
14.119404 -19.958058 53.392257 231 235 198
-20.616225 -14.465443 48.422680 217 222 176
-2.588957 19.778210 57.126605 213 219 174
7.686431 11.349069 50.585055 233 238 202
13.888467 -17.601119 52.943820 215 217 180
28.894217 10.961640 48.344466 229 230 186
-19.494468 -21.410544 36.981872 210 221 179
31.325614 12.483931 49.222754 226 227 187
-16.217169 -19.229778 40.578822 255 169 56
8.341561 24.307872 54.592426 228 235 195
16.428131 -34.088653 47.939764 210 217 180
-19.501130 -21.179267 41.001590 213 221 174
0.081496 -4.385236 57.261871 247 199 135
-2.513960 -39.439319 53.986117 199 204 162
5.173671 -10.743638 46.692123 231 178 107
15.615568 31.801418 49.729176 252 220 186
28.653020 20.748067 51.383183 183 184 148
-17.254207 -9.981351 42.702115 255 170 55
-18.528214 -18.737773 43.208071 215 223 176
29.386617 -50.684585 67.751246 204 209 175
30.728058 -51.298903 68.470335 200 205 169
13.568096 4.199547 57.979731 182 185 139
-23.930732 30.797282 77.126265 199 210 190
51.976777 38.048699 60.506533 252 230 191
5.427536 35.132894 54.991524 251 223 192
-17.266247 26.963394 50.807586 218 221 175
-0.585179 29.234522 42.020602 254 237 205
-19.056678 9.899819 42.857627 220 222 177
20.972878 -38.593107 55.676631 227 233 195
42.087570 33.113928 49.830606 194 142 88
26.078870 -52.248495 70.136488 227 233 195
30.230273 -51.158715 68.345683 196 201 167
49.239937 39.009124 60.938143 251 225 182
-0.888892 2.789766 28.960804 231 207 151
-6.383930 -33.011424 44.408464 189 194 154
21.650019 24.603183 59.771425 196 202 160
-22.749581 -9.504799 49.070475 56 50 31
-130.157255 -53.809881 279.914821 55 49 30
-1.786304 -0.756001 3.850752 132 131 99
-13.293911 -5.611592 28.652238 137 136 102
-12.937979 -5.498551 27.857519 137 136 102
-10.221952 -4.248855 22.051518 128 128 96
