ply
format ascii 1.0
comment author: Alexander Kryvonos
comment object: reconstructed scene with color
element vertex 528
property double x
property double y
property double z
property uchar red
property uchar green
property uchar blue
end_header
0.093611 0.545169 1.354268 195 195 194
-0.261832 0.462714 1.188886 204 202 200
0.513408 -0.013498 1.830689 199 198 191
0.142347 -0.061824 1.665917 204 207 200
0.095998 0.502200 1.374967 188 187 185
0.411156 0.597114 1.447938 197 196 195
-0.282904 0.477925 1.179633 90 66 60
-0.229141 0.437979 1.197626 69 88 70
0.403982 0.630508 1.426420 184 183 180
0.115038 0.521783 1.352345 64 82 67
0.512375 0.068767 1.771427 201 202 196
-0.127802 0.209330 1.347785 46 57 43
0.157904 -0.085484 1.686482 199 203 197
0.075356 0.527029 1.371362 73 55 51
0.157498 -0.086876 1.678219 198 201 195
-0.257018 0.368223 1.221865 199 198 196
-0.239380 0.464382 1.181913 74 96 79
-0.265385 0.498772 1.173158 187 186 183
-0.232383 0.500865 1.169978 73 95 76
0.500642 0.040404 1.794186 187 184 176
-0.284970 0.368533 1.225353 80 57 51
-0.231302 0.438261 1.196780 64 83 65
-0.264443 0.425661 1.200489 185 183 181
-0.218208 0.089118 1.309950 94 96 83
0.437270 0.622237 1.404396 53 73 56
0.362367 0.729921 2.991240 49 60 47
-0.263621 0.563159 1.148002 183 186 184
0.122636 0.519647 1.353649 61 79 64
0.215386 0.600365 1.353353 34 49 38
0.552945 -0.180351 1.919258 192 191 183
-0.267691 0.534300 1.157861 179 178 173
0.118351 -0.100660 1.691645 113 92 85
0.666368 1.097718 2.388204 186 185 183
0.498267 0.126056 1.743597 211 212 206
0.372352 -0.260389 3.921875 197 199 194
-0.230174 0.498727 1.167528 83 104 85
0.514482 -0.044260 1.817370 211 212 205
-0.273338 -0.192564 1.448083 93 74 68
-0.236338 0.409829 1.206091 71 91 71
0.835178 0.080230 1.883101 205 206 206
-0.403155 0.078854 1.185933 42 55 43
-0.284514 0.338471 1.234123 98 65 58
0.144092 0.080443 1.587233 76 90 72
1.439239 -2.137807 4.810285 249 248 248
0.140814 0.035757 1.617456 205 208 201
0.430175 0.573927 1.439619 60 78 63
0.157694 -0.152380 1.695450 196 200 193
-0.244287 0.567674 1.142561 71 94 74
0.121447 0.489546 1.368320 75 97 76
0.881863 -0.082027 1.996024 195 195 192
-0.278381 -0.137223 1.425022 109 82 75
-0.282436 0.445232 1.194280 73 52 47
-0.215656 0.088190 1.294485 95 96 83
0.645406 0.698400 1.435189 178 180 178
0.125039 0.576403 1.319973 67 86 68
-0.239800 0.528109 1.155557 75 97 76
0.394999 0.680232 1.392544 190 190 188
0.075866 0.426317 1.427789 79 62 55
-0.378796 0.141880 1.193288 45 56 45
0.445828 0.568624 1.441207 53 72 55
1.085495 -0.425156 3.804531 190 191 183
0.101360 0.424804 1.413303 176 178 173
1.085370 0.635514 2.733005 55 67 54
-0.143317 0.165019 0.567870 164 165 161
0.140375 0.037116 1.615214 205 207 200
-0.274489 -0.100954 1.418104 100 79 72
0.824968 0.148546 1.849554 204 205 204
-0.230815 0.562427 1.143806 74 98 79
0.549233 -0.112764 1.886909 192 195 187
-0.234404 -0.294622 1.481643 195 195 191
-0.233498 0.563167 1.142998 76 100 79
0.403757 0.560186 1.493497 90 65 58
-0.215679 0.523801 1.160815 115 138 116
0.167503 -0.280260 1.757043 188 191 184
7.898318 5.982448 21.487807 50 63 51
0.499765 0.623820 2.951769 106 112 96
0.399755 0.641171 3.002549 88 103 82
0.256529 -0.320233 4.152118 116 110 105
-0.287456 0.482585 1.175046 83 58 52
-0.207302 0.465284 1.182811 95 113 93
0.432321 0.476280 1.520832 167 168 163
3.983450 3.174239 9.659302 56 50 46
0.476998 -0.262894 1.931416 81 77 74
0.118056 0.580954 1.322203 59 77 61
0.130522 0.514858 1.350398 59 77 60
5.035569 4.265361 13.543984 165 163 153
0.491164 -0.018417 1.862611 113 82 76
0.713324 -0.941491 2.305767 249 248 249
0.138532 0.042159 1.609584 203 206 199
-0.238134 0.534271 1.154955 79 103 82
1.706043 1.449594 6.056708 87 103 84
0.979308 -0.625852 4.028159 80 72 70
-0.235498 -0.295938 1.488364 196 196 192
0.053830 0.394280 0.983001 89 67 62
0.352495 0.124472 2.832367 122 142 123
0.663295 0.637016 1.468120 199 200 202
0.125092 0.965505 2.817795 75 54 49
0.070209 0.461032 1.409998 82 60 53
0.114563 -0.010530 1.650648 111 87 79
-0.252169 0.313420 1.242270 156 159 153
0.902010 -0.000420 1.932632 102 121 108
-0.378707 -0.598910 1.408420 116 134 120
0.866270 0.114196 1.855021 105 123 111
0.417160 0.658616 1.387841 67 89 71
0.497106 0.122860 1.737855 209 210 204
0.288805 0.787470 2.854333 173 165 152
2.485961 2.648466 8.257346 44 57 45
0.205125 1.054093 2.599839 65 86 70
-0.206635 0.084609 1.240301 96 97 84
-0.272695 -0.230536 1.462201 108 85 80
-0.218864 0.441657 1.195693 46 59 47
0.364754 0.127553 2.930677 141 161 143
0.887028 0.054992 1.897039 110 129 115
-0.177019 0.291081 1.287426 74 92 71
0.964022 -0.623243 3.975900 82 75 73
1.116652 -0.828917 2.450663 247 247 249
0.373129 -0.432982 3.992826 194 196 191
-0.215497 -0.141580 1.418957 123 148 126
-0.394495 0.133900 1.185529 46 64 47
-0.102532 0.659167 3.113717 159 153 142
0.372764 -0.426208 3.977887 195 197 191
0.911680 -1.028319 4.297361 237 238 236
6.874125 5.832865 20.298945 110 114 98
0.692782 0.672046 2.841530 167 167 156
0.408403 0.522735 1.517917 76 55 49
0.069870 0.457662 1.401357 82 60 53
-0.243761 0.535114 1.158379 78 100 81
0.433831 0.617483 1.393380 51 71 54
0.849214 -0.018505 1.932682 210 211 211
-0.230901 -0.176610 1.438761 191 194 189
-0.244483 -0.049610 1.395685 200 202 195
-0.199088 0.081594 1.194993 96 97 84
0.799868 0.196204 1.804094 208 209 207
-0.202809 0.083066 1.217353 97 97 85
0.418474 0.628578 1.402086 60 79 64
-0.538055 -0.390054 1.169143 124 118 114
0.196974 0.078684 1.589412 135 154 135
-0.402031 0.084593 1.178313 43 58 44
0.312018 -0.583944 4.368604 110 87 82
1.031585 -0.468679 3.924143 93 78 73
-0.238133 -0.361385 1.505129 188 187 183
0.893233 0.531699 2.891815 60 72 58
0.082483 0.555547 1.333640 160 158 154
-0.240063 0.534080 1.155050 76 100 79
0.852064 0.167165 1.817940 105 124 110
-0.261253 0.914110 2.748634 44 60 43
0.845882 0.028030 1.917461 210 212 213
0.530065 0.585028 1.456098 35 49 37
0.930852 0.676184 2.801040 89 104 86
-0.215526 0.134345 1.314989 55 65 51
0.821797 0.223853 1.755264 95 112 96
-0.235197 0.095736 1.412179 96 97 84
0.419495 0.537757 1.492520 150 152 147
0.846684 0.028530 1.919268 211 212 213
-0.548110 -0.526726 1.179270 237 235 238
-0.254498 0.814581 2.993421 43 59 43
-0.362727 0.418806 1.164220 92 88 79
0.516940 0.525420 1.499212 52 68 53
-0.207506 -0.209606 1.457198 109 132 113
1.737432 2.110283 5.761585 54 71 54
0.788672 -0.023564 1.926371 91 82 80
-0.552338 -0.353959 1.131524 221 218 220
-0.092025 -1.467110 4.811269 232 233 230
-0.399827 0.115890 1.213429 47 69 49
-0.159283 0.281846 1.290247 108 115 97
-0.324003 0.535370 1.154458 55 57 49
-0.283086 0.409657 1.210726 87 59 53
-0.208362 -0.210127 1.462588 112 134 116
0.775194 -0.024725 1.919391 84 78 76
0.033423 -0.571470 1.769600 111 129 113
0.837232 -0.929693 4.257371 234 236 233
0.413762 0.097979 1.745979 108 103 98
0.803512 0.364798 1.602277 79 91 78
0.234729 0.481212 1.432424 51 65 52
-0.236645 0.857053 2.854758 74 94 74
0.211480 0.290112 1.996534 57 66 54
0.690770 1.059041 2.412840 179 182 179
-0.186581 0.672486 3.065070 44 54 44
-0.218533 0.125994 1.321895 50 59 47
0.502514 -0.115571 1.906384 112 91 85
0.508505 0.005664 1.900521 114 88 83
0.367427 0.688515 1.432781 84 78 73
0.997256 -2.163523 5.201357 143 165 153
0.816351 0.223493 1.743524 97 114 99
1.421008 -1.778247 4.455216 144 165 157
0.495255 0.003152 1.850108 115 85 79
1.168128 -1.010494 2.571357 245 243 245
0.245417 -0.902003 1.997173 247 247 247
1.551459 -2.640114 5.174139 246 246 247
0.910113 -0.914358 2.395107 238 239 238
1.082209 0.675206 2.569163 177 179 171
0.810157 0.957754 2.421779 68 89 68
0.147332 0.378873 1.422843 173 165 151
0.506141 0.658324 2.910884 90 105 85
1.100347 -0.758114 2.410802 247 245 247
0.285904 0.096571 1.652868 154 172 154
1.082928 0.550134 2.756908 57 69 57
-0.239970 0.097520 1.441026 97 98 85
0.885400 -0.772903 2.326311 235 236 238
1.467860 -1.339020 3.988583 229 231 231
-0.552243 -0.299566 1.132926 236 234 236
3.220626 3.168057 8.867149 135 139 130
0.127210 0.378349 1.377409 166 160 148
-0.192183 0.858372 2.896503 160 162 151
0.848519 0.230164 1.765714 88 102 89
-0.209248 0.468745 1.196426 104 117 99
-0.067940 0.330722 1.350722 178 174 164
0.738217 -0.309194 3.770213 141 168 144
-0.242507 -0.013587 1.380080 74 93 75
-0.236969 0.159304 1.302522 79 93 75
-0.289573 0.599867 1.149247 145 147 144
0.793991 0.344777 1.651258 38 44 39
0.372828 0.696313 1.403738 106 94 88
0.275141 -1.208271 2.132696 242 242 243
-0.438478 -0.025064 1.182005 140 156 139
0.125092 -0.198341 1.754717 105 81 74
-0.197961 -0.329204 1.501806 113 128 113
0.901659 0.752945 2.657446 108 112 98
-0.324070 0.564523 1.081643 142 145 142
-0.019935 -0.384783 1.656196 211 210 204
-0.253405 0.316204 1.251684 156 158 151
-0.545368 -0.522136 1.182993 243 241 245
1.057988 -1.881236 4.795880 243 243 244
0.071477 0.568158 1.355503 85 64 58
0.496491 0.297153 1.606740 55 67 55
0.881181 0.187076 1.757826 194 194 188
-0.353642 -0.559091 1.426449 188 185 182
0.329678 0.003948 1.298627 113 97 93
0.189781 -0.047309 3.723529 102 99 94
0.822855 0.160855 3.476135 99 95 90
-0.218145 -0.363786 1.502352 205 203 198
0.911919 0.870225 2.546133 73 94 74
1.157301 -0.725824 2.362143 186 186 184
0.655824 0.568021 1.546805 68 56 52
-0.270029 -0.287790 1.482569 97 79 76
0.120552 1.021181 2.942675 64 49 43
-0.017132 -1.027316 1.847209 133 145 144
-0.481545 -0.128463 1.171681 179 176 167
-0.127974 0.235855 1.343013 61 76 58
0.807371 0.130318 3.430252 106 101 95
0.457991 -0.797795 2.120718 224 227 226
0.438669 0.220908 2.971822 127 147 126
-0.327356 0.571141 1.099634 141 144 140
-0.052747 0.055677 1.442710 110 128 107
-0.013910 0.205003 1.420393 68 82 63
0.061039 0.458456 0.944562 128 128 120
0.191668 0.351500 1.471916 48 58 47
0.692225 -1.046668 2.352869 214 212 214
0.349035 0.584258 1.428604 83 76 73
0.094603 1.186207 2.470687 71 54 50
0.090246 0.628093 1.323378 196 196 192
0.719283 -1.012255 2.337268 249 249 250
0.176238 0.112840 1.560455 124 143 122
0.079104 -0.453664 1.747885 220 221 217
0.500461 0.006257 1.870738 117 88 83
0.368781 0.694784 1.411563 103 98 91
1.088863 -0.458778 3.687289 178 179 172
-0.215999 -0.084776 1.409900 104 125 107
0.898816 -0.178154 2.010928 208 206 201
0.135142 1.160380 2.509779 171 169 165
-0.044652 -0.024427 1.523230 133 161 136
0.520816 -1.209065 2.277409 241 241 244
-0.233013 -0.113742 1.417431 187 190 184
-0.219544 0.260540 1.296041 160 155 145
0.495203 1.050280 2.581963 42 57 44
0.856474 0.811967 2.580113 46 58 46
0.565429 -0.201463 1.893074 181 182 176
-0.160528 0.340983 1.261044 112 117 101
-0.282834 0.114116 1.699057 99 98 86
-0.322153 0.541129 1.155317 55 56 48
0.644024 0.554198 1.518985 68 54 48
0.404975 -0.669094 2.033406 110 117 112
0.688506 -0.894985 4.351136 143 167 147
0.541750 -1.221921 2.301224 239 239 241
0.926202 0.668324 3.022887 48 61 48
0.476981 0.451647 1.520332 166 158 147
0.357272 1.009461 2.646733 79 102 79
0.653397 0.491485 1.566772 52 45 43
0.306484 0.094498 1.253416 99 93 89
-0.499255 -0.061182 1.127020 146 160 146
-0.127845 -0.456161 1.604614 113 136 118
0.487446 -0.686342 4.164425 119 127 117
0.482973 0.252981 3.735257 118 137 117
-0.057887 -0.021501 1.509019 135 163 138
1.075998 0.840490 2.355434 176 178 175
0.350390 -0.116735 1.780239 136 164 141
1.276985 -0.443640 3.586124 222 225 220
-0.550619 -0.410585 1.158833 233 233 235
1.070062 -0.454977 3.627930 168 170 163
0.399717 -1.317827 4.933121 218 217 213
-0.307168 0.547070 1.155047 66 62 56
-0.473359 -0.361036 1.255995 162 159 150
0.258819 0.378624 0.913256 163 165 167
-0.155426 1.050557 2.621275 36 52 38
-0.207669 -0.391038 1.529022 159 161 155
-0.111959 0.420171 1.261710 104 114 96
-0.086383 -1.568378 4.820319 132 154 138
-0.342807 0.517438 1.177231 66 61 52
0.458442 -1.177503 2.265929 130 144 142
0.256472 0.896707 2.824933 172 169 161
-0.289152 0.570639 1.153465 101 90 84
0.633592 -0.972041 2.352625 131 118 126
0.198103 0.512359 1.415016 80 101 78
-0.481622 0.919941 2.354740 45 62 48
0.706762 0.591134 1.467509 42 58 46
-0.396051 -0.557747 1.387678 226 228 225
-0.096148 -1.384661 4.759445 154 158 149
0.347690 1.015484 2.601258 78 100 78
-0.529861 -0.357293 1.174845 162 154 145
1.486284 -0.460166 3.400911 216 215 211
0.330465 -0.058876 1.738293 133 163 139
-0.550159 -0.522325 1.189602 240 237 241
0.252724 -0.973939 2.030813 248 248 248
0.505506 0.938323 2.650837 93 96 88
0.360076 0.257444 1.174484 48 58 48
-0.157246 0.744115 2.894687 147 147 135
0.172936 -0.905653 2.020124 146 134 136
0.454843 -1.264159 2.292778 118 131 136
-0.360440 0.415798 1.157407 95 92 83
0.914556 -1.079749 2.501026 140 150 151
-0.498318 -0.276351 1.206456 129 127 114
-0.518563 -0.136426 1.130051 198 195 190
0.077279 0.428888 1.446051 71 60 54
0.410308 0.083398 1.734281 113 107 102
0.111734 0.613038 1.313351 70 94 75
-0.068795 0.380884 1.294058 140 142 130
-0.378469 -0.573844 1.421532 183 186 181
-0.475469 -0.389832 1.263511 123 138 124
0.700823 -0.163155 3.571748 136 165 141
1.081583 -0.690009 2.366899 247 245 247
0.298824 -0.338863 1.867366 147 172 151
-0.414340 0.562299 1.015646 59 69 51
-0.113441 0.408019 1.299037 49 64 49
0.998580 0.836795 2.497913 67 61 58
0.916154 -0.110555 1.995283 158 155 150
-0.321018 0.559133 1.080209 142 144 141
0.120497 0.429873 1.391501 176 176 170
0.512051 -1.195530 2.244788 240 240 242
0.937692 -0.245664 2.101171 215 213 210
1.210106 -1.556035 4.262096 220 216 216
6.287700 4.601551 16.280799 167 161 150
1.262426 -1.141882 3.161970 145 145 148
0.031634 0.253139 1.432656 164 164 155
-0.211074 -0.734790 1.600400 166 170 167
-0.486541 -0.242142 1.186209 179 174 167
1.139722 -0.818235 2.423105 151 152 154
0.284569 0.606932 3.257216 47 58 47
0.138466 0.248952 1.059930 49 61 49
-0.310797 -1.056469 2.294761 100 109 106
-0.230380 -0.461438 1.518849 209 205 200
0.755408 -0.318228 3.861865 138 166 142
0.005503 -0.313130 0.755905 146 146 149
-0.131290 -0.015931 1.407876 110 137 112
3.955580 2.134943 8.655606 48 58 48
-0.187155 0.804094 2.975506 163 160 150
1.213831 -1.713413 4.647069 147 138 140
0.737486 -1.687605 2.835338 231 229 234
-0.192025 0.347233 1.260422 186 179 165
0.359177 0.193878 2.778391 109 130 109
0.809416 -0.575475 2.187360 143 155 148
-0.140457 0.456777 1.249466 60 77 59
0.448782 -0.387811 1.915981 192 192 187
-0.319775 0.556780 1.076378 142 144 141
1.733905 -2.480564 4.642968 170 170 176
-0.260637 0.217867 1.303637 152 153 142
-0.540398 -0.113505 1.096894 105 108 101
0.593961 -0.751699 2.212468 149 144 146
0.252993 0.310657 1.490534 102 108 92
-0.473755 -0.360936 1.256697 165 162 152
-0.438035 0.931353 3.257239 101 112 94
-0.191405 0.161023 1.321009 77 96 74
-0.293505 0.090978 3.105653 144 159 141
0.988093 1.006790 2.495253 71 80 66
-0.038345 -0.513898 1.710637 123 145 127
0.510245 0.262637 3.948087 106 125 105
0.160505 0.434500 1.408075 171 165 152
0.502002 0.259176 3.883731 108 126 106
0.785611 -0.362737 2.075159 113 135 122
0.431781 0.686006 1.381016 58 76 62
0.949990 -0.626737 2.297104 146 143 144
-0.189048 0.489584 1.174078 83 106 85
0.254134 -0.320959 1.815236 147 160 148
-0.355067 0.874641 3.286029 47 66 47
-0.344685 0.436645 1.162465 65 51 46
-0.259649 0.949369 2.698861 94 111 89
0.467794 0.230984 3.169648 125 144 124
-0.552394 -0.471758 1.190958 233 231 233
1.755793 1.989209 6.512488 167 162 151
0.818106 0.954016 2.437696 70 90 69
-0.094111 -0.150329 1.516853 138 166 143
0.399610 -0.148545 1.826004 112 98 94
0.916164 -0.393674 2.160999 175 181 174
0.173564 -1.086633 2.105772 137 130 137
0.385521 0.419066 1.143564 68 86 69
-0.430090 1.073142 2.211271 85 116 88
0.379065 -1.167268 4.467438 224 223 219
0.202862 0.121471 1.577829 126 146 125
0.921070 0.332883 2.827262 129 149 128
-0.064854 0.924098 2.741746 59 50 46
-0.488203 -0.049158 1.130395 108 124 109
0.355007 0.161833 1.757943 127 147 126
0.460058 -0.963067 2.129243 205 208 207
0.240449 0.161822 3.717710 104 77 67
0.049152 0.323738 1.014517 69 52 46
-0.440312 -0.375211 1.308033 110 118 109
-0.298867 0.092145 3.163404 142 158 139
-0.222412 0.512983 1.173930 49 65 51
0.362818 0.143771 1.217981 105 121 103
0.680547 0.709712 1.426144 47 64 50
-0.361853 -0.426484 1.519129 146 145 150
0.102337 0.080994 1.605581 100 75 66
0.931117 -0.121303 3.310573 196 200 193
-0.065316 0.922079 2.731746 60 51 47
0.025825 0.475126 1.393582 72 67 63
0.586004 0.577235 1.474235 70 64 56
-0.412057 0.584202 1.039790 56 65 52
0.636057 -0.976026 2.361506 131 118 126
-0.038549 -0.067900 1.532870 130 157 132
-0.295566 -0.586975 1.561157 200 198 195
0.868318 0.591413 2.948790 81 96 76
1.162544 -1.559385 3.015187 238 237 241
0.534757 -0.066714 1.834890 197 196 187
-0.342465 0.844889 3.183038 49 68 49
-0.072267 0.862950 2.879160 93 72 63
0.049221 0.325416 1.017420 68 52 46
-0.442400 -0.377802 1.314818 110 118 109
-0.368751 0.155902 1.157441 160 155 144
-0.438741 1.053629 2.182569 87 117 90
-0.519068 -0.164881 1.146815 133 132 122
0.206766 0.638575 1.371275 74 98 75
-0.486542 -0.242508 1.186499 179 174 167
-0.202200 -0.523375 1.552694 161 169 163
-0.095093 0.613678 2.900782 162 157 146
1.259012 -0.750372 2.840006 221 219 218
1.019547 -0.830213 2.455923 128 114 122
0.122120 1.083099 3.101649 61 49 44
2.732925 2.846834 7.805062 132 141 131
0.426531 0.463158 1.499354 166 167 162
-0.521612 -0.335908 1.187734 131 127 118
0.356562 -0.430975 3.849342 195 198 192
1.832414 -2.241777 4.432564 186 185 188
1.508244 -1.682294 3.438167 236 234 238
-0.035263 0.311671 1.364273 119 119 110
1.479035 -2.173321 4.060537 165 168 173
-0.401056 -0.321791 1.315648 101 88 86
0.707074 0.705538 2.832868 179 178 170
-0.442170 -0.437363 1.317249 152 152 146
-0.274784 0.953730 2.855316 39 55 39
-0.493894 -0.102466 1.209292 123 126 116
0.505051 0.156507 3.013756 157 178 159
-0.357625 -0.651029 1.538229 106 125 111
0.897828 0.190204 1.791148 183 184 177
0.437299 -0.961827 2.184163 148 167 158
0.334266 -0.661313 4.805296 111 94 89
-0.295651 -0.033277 1.402102 130 112 103
-0.120374 0.570138 1.186060 105 132 107
0.419200 0.210038 2.839550 125 144 123
1.183313 -1.643255 3.160241 234 231 234
0.144831 0.358998 1.027840 80 99 80
0.657830 0.168562 1.782100 118 143 122
0.656718 0.156755 1.761207 123 148 128
-0.051591 0.053851 1.415489 109 129 107
-0.239119 -0.180711 1.486010 189 190 185
1.107329 0.539122 5.749321 160 168 155
0.351156 0.246929 1.144766 45 55 45
0.413152 0.133357 3.298679 145 164 145
-0.449243 0.522846 1.045375 38 60 42
0.741347 0.311972 3.669936 117 139 118
0.345104 0.062881 1.302009 97 79 74
-0.339162 0.212868 1.173896 160 159 149
-0.206837 0.328368 1.272328 134 136 127
0.886749 0.931111 2.384843 74 93 74
-0.416485 0.242203 2.510590 55 68 54
0.808834 -0.373068 2.136614 120 141 128
0.702759 0.586594 1.459201 41 58 45
-0.152160 -0.052320 1.475385 137 169 142
-0.485075 -0.236173 1.178444 184 179 171
0.658890 0.150337 1.777410 121 147 126
-0.463280 -0.654961 1.317230 115 127 118
-0.554193 -0.359351 1.156702 229 228 229
0.735053 -1.032784 2.390859 238 237 239
0.457277 -0.388285 1.945915 202 202 197
0.095817 -0.562527 1.843877 211 213 208
0.037143 -0.517509 1.720395 205 204 200
-0.041695 -0.083423 1.568822 124 152 127
0.342649 -0.675702 4.922408 111 95 90
1.423028 -2.305143 4.523430 131 145 149
0.613648 0.924467 2.538773 70 60 55
0.163041 -1.030011 2.013065 136 124 132
-0.115047 0.414227 1.312624 48 64 49
-0.498985 -0.310927 1.239342 156 150 141
0.178505 0.100562 1.214056 120 133 117
-0.500703 -0.508722 1.256780 136 131 125
0.922824 -1.088040 2.524527 137 147 148
0.172115 1.085167 2.531848 142 150 144
-0.387188 0.295665 1.138638 89 59 52
-0.041796 -0.084427 1.577097 124 152 127
0.037864 -1.042984 1.898199 235 234 236
0.825866 -0.370386 3.784176 115 97 92
-0.382744 0.051960 1.660987 121 118 106
-0.019087 0.016361 1.476844 92 80 74
0.060471 -1.385370 2.881832 241 240 242
0.342845 0.061853 1.293067 100 80 74
1.473921 -0.369387 3.478639 129 125 120
0.656457 0.492767 1.574118 53 46 44
-0.552828 -0.355850 1.151879 230 228 230
-0.545351 -0.358506 1.124353 227 225 226
-0.521478 -0.629989 1.218160 181 179 177
0.214412 0.593896 1.345134 36 52 40
0.328443 0.148397 1.625725 118 139 117
0.265238 0.321220 0.942499 147 150 149
0.274985 -0.249860 1.886160 127 147 128
-0.858401 0.077277 6.824202 100 109 98
1.266778 0.220448 3.216634 93 82 78
0.465832 0.507597 1.135627 50 49 45
-0.405300 -0.082103 1.247521 84 90 88
-0.534278 0.616845 1.466452 41 52 43
1.013816 -0.792840 4.573935 153 151 148
-0.166729 -0.118986 0.526369 154 150 147
0.182292 -0.063901 0.793890 144 141 140
0.215771 -0.086564 0.919767 88 90 86
0.382186 -0.201738 1.558088 109 113 106
0.606623 -0.364303 2.452610 113 123 112
0.201256 -0.076645 0.865269 87 94 84
0.239008 -0.100524 1.011760 95 95 88
0.218716 -0.088364 0.931354 125 124 120
0.610377 -0.357670 2.467429 104 112 101
0.599574 -0.351719 2.423665 103 111 100
