ply
format ascii 1.0
comment author: Alexander Kryvonos
comment object: reconstructed scene with color
element vertex 338
property double x
property double y
property double z
property uchar red
property uchar green
property uchar blue
end_header
-1.356218 1.379985 3.002508 87 73 72
-0.482221 -1.746307 4.404049 135 104 82
-0.483644 -1.750979 4.419287 133 102 80
-0.603502 -2.746489 4.589701 184 176 164
0.705320 -2.561342 3.963190 169 158 145
0.748168 -1.846032 3.859734 175 162 145
-0.401542 -1.479926 4.553036 115 94 70
0.644631 -1.954812 3.939365 128 110 90
-0.185473 -1.569545 4.434132 165 150 127
3.391347 -2.345561 5.676182 132 93 77
-0.400459 -1.476952 4.536422 115 94 70
-1.314766 0.457799 4.247366 145 128 108
-0.080416 -1.731349 4.229868 140 107 83
0.695021 -2.614187 4.033292 170 160 146
-0.455771 -1.906528 4.338232 168 136 116
-0.842234 -2.913148 4.766461 182 170 154
0.188969 -2.712244 4.286158 176 160 140
0.010786 1.425063 2.637164 192 191 188
-0.742820 -1.780136 4.396216 174 148 127
-1.384436 -2.844934 4.878362 177 167 152
-0.679128 -2.669908 4.639622 107 107 107
-0.356750 -2.574239 4.400984 99 100 99
0.622730 0.219385 3.460203 192 179 159
-0.096232 -2.232247 4.129129 165 153 139
3.229293 -1.280695 5.207769 141 125 109
-0.225958 -2.322102 4.193687 130 111 90
0.408588 -0.195544 4.320355 57 53 49
0.457108 0.279867 3.827676 181 167 146
0.190506 -2.744798 4.331941 177 161 141
0.512485 -2.547045 4.138040 77 73 69
-1.276506 1.090787 2.592737 87 69 66
-1.756615 1.186017 2.635256 101 88 90
-1.167735 -2.829447 4.862596 175 164 149
0.714527 -1.779043 3.825833 184 174 157
0.473121 -2.495569 4.025944 96 95 95
0.473277 -0.186063 4.028174 183 169 150
-1.080368 -1.179347 4.638396 155 134 113
-1.180002 -1.416915 4.483484 178 155 138
-1.250656 0.392957 4.249912 183 168 152
0.165343 -1.978277 4.148516 129 110 87
-1.592036 1.624183 3.516300 88 72 73
3.135152 -2.343028 5.802195 124 89 74
-0.869451 -2.438936 4.408229 110 104 101
-1.252921 0.270614 4.308141 181 166 148
1.515428 -4.317048 5.208102 133 125 113
-0.083324 -1.796831 4.392747 138 105 82
-1.589683 1.133026 2.708786 95 80 81
3.683371 -3.159014 5.939715 163 151 137
3.571008 -2.547215 5.653462 174 164 151
0.411137 -0.196366 4.347435 57 53 48
-0.100311 -1.747706 4.292478 137 104 80
-0.187413 -3.494955 4.567605 174 162 148
0.479093 -0.190996 4.077783 182 168 149
-0.100869 -1.749211 4.282793 138 105 82
0.854945 -2.476326 3.892140 96 96 93
-0.285167 -1.058280 1.980892 132 114 94
0.648049 -1.166758 3.725437 167 132 113
-0.567658 -1.849379 4.348886 170 138 119
-1.258679 -0.826520 4.438711 159 123 99
-0.079351 -1.726264 4.238166 139 106 82
0.296927 -1.948580 4.061938 180 166 150
-0.089381 -3.026948 4.605912 184 172 153
3.675301 -5.360703 6.914634 119 106 89
-0.064152 -1.501769 4.433149 117 94 68
0.607200 -2.702714 4.070008 174 164 147
0.647999 -2.264497 3.841402 118 98 76
-1.527864 -2.363299 4.650262 123 108 98
0.875469 -2.063047 3.882791 176 162 144
-1.560752 -1.927975 4.847072 190 178 166
-0.599582 -2.108617 4.394449 178 163 148
0.851226 -2.457781 3.873549 91 90 87
-0.332632 -1.306224 2.283579 101 102 101
0.286694 -1.895455 4.061849 184 169 149
0.395408 -1.505390 3.891354 174 144 125
-1.549467 -1.878085 4.726318 190 180 169
-1.046517 0.225185 4.403790 166 155 141
-0.916148 1.054590 2.494485 86 73 72
-0.346776 -3.729803 4.719950 165 154 137
0.427839 -2.749800 4.200271 160 145 127
-1.060318 -0.070243 4.504716 169 153 133
-0.347929 -2.084502 4.295064 175 157 139
-0.091078 -3.274842 4.522653 162 150 136
-1.322443 -2.361926 4.581508 136 118 100
1.102759 -2.372942 3.643808 106 94 83
-1.262035 -0.024585 4.353205 178 163 143
-0.164970 -1.773194 4.361943 137 104 79
0.388929 -2.052955 3.993756 175 161 145
-0.701007 1.458917 3.864658 127 113 111
-0.249936 -1.590593 4.384956 134 111 86
-0.883862 -3.280005 4.637924 147 132 116
-0.187908 -3.507048 4.585469 174 162 148
0.011133 1.417004 2.624830 192 191 188
-0.100090 -2.071900 4.202673 178 165 150
-1.686509 -1.927041 4.783531 136 121 105
-0.957798 0.962634 2.960669 82 62 57
0.635755 -1.689929 3.790037 188 176 159
-1.257913 -2.515301 4.561773 103 100 99
3.309701 -2.280573 5.540808 133 93 78
-1.275164 -0.831806 4.499487 158 124 99
0.014579 -3.494410 4.360163 156 145 135
-0.940227 0.104117 4.690368 136 119 100
0.592761 -2.925130 4.045923 157 147 134
-1.370133 -0.346615 4.448403 123 108 90
-1.542847 1.199568 2.710714 130 116 117
-0.802972 -1.006254 4.859411 154 135 109
-1.062964 -0.072602 4.515862 169 152 132
-0.531739 -1.976357 3.675749 133 117 97
1.019116 -1.830023 3.944868 147 131 110
2.905631 -1.278706 5.333199 130 114 97
0.512767 -1.927903 3.933811 171 158 141
2.938659 -0.815585 5.197855 128 96 76
2.921738 -1.284911 5.362828 133 116 99
-0.797215 -3.154629 4.689270 181 171 154
3.874445 -5.677558 6.771047 105 89 71
-1.273226 -0.081081 4.399576 173 156 137
-0.220918 -2.062940 4.198528 154 138 121
-0.746354 -0.287123 4.964720 122 108 91
-0.457052 0.787471 2.679149 87 67 62
0.187080 -3.018171 4.729919 178 164 145
-0.364420 1.074790 4.519344 88 71 58
0.298996 -1.402281 4.081340 162 144 120
3.870916 -3.753673 6.266280 151 137 122
-1.266829 -2.533106 4.594169 103 100 99
-1.068432 -0.312544 4.565369 136 120 101
0.453107 -2.826389 4.212989 116 100 81
-0.507528 0.877617 2.970715 89 67 62
0.327091 -2.939700 4.225216 178 166 148
0.830197 -2.665918 3.814113 111 97 90
1.754924 -4.082622 5.177762 156 145 128
3.626096 -3.828267 6.187558 70 51 44
0.648300 -0.362725 3.017638 162 162 164
-1.134112 -2.463399 4.580744 170 161 147
0.328678 -2.952213 4.244612 178 167 148
-1.286506 -0.175777 4.453901 169 152 133
0.415070 -1.979824 4.055797 127 109 88
-0.551466 1.309389 5.047486 42 41 42
-0.620075 -3.282546 4.724221 174 162 147
1.711646 -3.972493 5.050345 159 147 130
-1.605909 -1.946164 4.898903 192 183 172
0.855479 -2.575152 3.878019 160 151 141
0.648379 -1.166439 3.727022 167 132 113
-1.436591 -2.089627 4.878091 142 126 111
-1.222504 -2.927579 4.825225 122 111 98
-0.441302 -2.002564 3.365362 183 175 163
0.307803 0.903716 1.841799 82 70 69
-0.959134 0.083372 4.534788 138 121 101
-1.228276 -1.862055 4.618900 195 182 166
-1.652568 1.177863 2.606127 99 85 85
3.277840 -2.716485 5.863665 158 145 132
-0.544869 1.293277 4.992534 40 40 41
0.098232 -1.554447 4.299587 153 134 110
-0.365826 -1.659674 2.803708 184 176 164
0.754332 -1.024637 3.595377 186 170 152
3.655429 -5.341818 6.884435 119 106 89
0.355502 -0.350038 4.074118 73 61 50
3.944685 -4.791082 6.301762 164 150 132
0.006710 -1.426719 5.066235 101 81 61
-0.472125 -3.718426 4.678180 126 112 97
-1.390477 -2.374699 4.493860 178 168 155
-0.423296 -1.920881 3.233685 183 175 163
-0.903243 0.947337 3.182493 89 66 60
-1.264751 -0.787923 4.438418 158 124 100
-0.705891 -3.241933 5.276036 178 167 151
-1.668817 1.154541 2.725268 178 170 166
-1.728387 -0.939981 4.623471 148 122 100
3.487813 -2.672726 5.843038 81 72 75
0.043612 -1.948884 4.148534 173 156 138
-0.667239 1.272171 2.736484 92 72 69
0.531172 -0.152792 3.933340 154 137 113
-1.002521 -2.038236 4.609117 182 167 151
-0.944681 -0.375650 4.557325 97 80 61
-1.082446 0.994916 3.057961 92 70 66
0.951723 -2.630543 3.845510 105 94 86
2.806870 -0.783511 5.271417 156 139 123
-0.854377 0.038938 4.626032 167 148 129
0.543838 -0.178982 3.780665 185 171 150
-1.675150 1.158388 2.736195 177 169 166
-1.272886 -0.087721 4.397863 173 156 138
0.368638 1.159638 2.528477 86 70 68
3.898917 -5.432858 6.780455 150 137 120
0.424664 1.286342 2.576095 84 69 68
-0.089900 -3.294728 4.570877 169 158 144
3.036495 -0.459113 5.282994 154 139 123
-1.271679 -0.801730 4.507450 161 126 101
-1.351838 -3.207299 4.803123 112 102 96
-1.311493 1.308831 3.655219 88 68 65
3.447282 -2.642274 5.795555 82 73 76
-1.695471 -1.797715 4.783317 147 132 115
0.893585 -1.897559 3.869757 116 103 81
-1.212867 -0.666113 4.341263 163 145 125
0.503154 0.954924 3.261468 140 128 114
-1.174449 1.027703 4.305085 143 126 110
0.524517 0.904797 3.090529 151 138 124
3.598109 -3.794562 6.140716 70 51 44
0.491843 -0.464614 3.708224 115 96 71
-1.740571 -2.158028 4.850339 185 175 164
0.866400 -1.193955 3.745835 169 151 130
1.042834 -2.064735 3.865619 179 167 149
-0.683344 -1.073742 4.930577 90 72 54
-1.048612 0.219096 4.414736 166 155 140
0.412334 -0.503071 3.736965 164 151 130
0.387929 -3.052444 4.239681 162 147 127
0.321746 -1.360050 4.013637 171 151 127
-1.038675 -1.509913 3.528369 139 123 105
0.872568 -1.852868 3.778715 118 104 83
-0.342172 -1.432095 3.247472 168 136 114
0.299700 -1.577882 3.074844 172 157 141
-0.878107 -3.257976 4.616172 152 138 123
0.407147 -0.612697 4.020258 130 115 91
-0.166118 -0.637627 4.526848 85 58 47
-1.569700 -1.364652 4.718746 194 180 163
2.690036 -0.287047 4.924869 148 136 120
-0.870936 -0.077315 4.731989 160 143 124
1.622308 -4.298695 5.021416 96 82 65
0.753388 -1.025501 3.591317 186 171 153
0.227468 -2.038724 4.071004 138 123 106
-0.986926 0.203145 4.660008 142 129 110
1.143478 -2.300209 3.637774 158 147 130
0.620327 -0.363708 3.573162 154 140 118
0.622012 -0.236333 3.529905 174 159 136
0.558931 -0.847737 3.946481 168 148 123
-1.036016 -0.348942 4.211825 110 93 75
-0.620666 -2.307308 4.286283 133 115 95
0.592803 0.746183 4.263413 145 130 111
-0.375512 -0.905498 1.575685 171 159 144
-1.327568 -3.157134 6.708973 179 164 147
0.585541 -0.408743 3.021599 66 64 65
-1.579770 -0.003452 4.387421 66 62 57
-1.455743 1.111676 2.856643 92 78 77
0.653241 -0.290669 3.001470 172 173 176
-1.210778 0.954393 4.128569 163 151 136
-1.358926 -2.949564 5.495027 162 152 138
-1.623081 -0.278774 3.913750 173 171 171
-1.067161 -0.303601 4.560162 138 123 103
0.491298 0.944721 3.195636 154 140 125
-0.925447 -0.374805 4.462061 104 87 69
-1.582872 -0.095259 4.202467 173 156 138
-0.677279 1.057838 4.558714 117 102 89
0.412232 -0.508942 3.737267 167 154 133
-1.119355 -3.035781 4.768899 176 167 153
0.633401 -0.591446 2.926066 164 152 132
-1.118965 -3.034059 4.769938 176 167 153
-1.366792 -3.164230 4.526115 152 143 134
-1.110362 1.045200 4.108829 112 85 72
-1.268711 -1.963305 4.719562 191 178 161
0.402419 -0.609986 3.973967 130 114 90
0.977730 0.846962 2.493385 85 73 61
0.173985 -1.555191 3.109410 138 122 105
1.068041 -2.027240 3.785972 176 163 145
0.017935 -2.148190 7.732901 92 74 58
0.012920 -1.377702 5.005530 76 58 44
0.481879 -0.445483 3.632036 111 94 69
1.503569 -2.176978 4.033296 76 66 53
-1.494443 -0.247484 4.268091 181 166 145
0.508606 -0.992885 3.924100 167 145 122
-1.161705 -0.362715 4.477216 106 90 70
0.635021 -0.157790 3.420899 171 156 136
0.415693 -0.512615 4.192984 135 120 98
-1.614579 -0.127808 4.028580 122 111 101
-1.305427 -3.665687 5.038529 107 95 87
3.856308 -5.366988 6.707510 150 137 120
-0.729439 -0.576024 4.715637 101 85 64
-1.163157 0.982628 3.009877 133 117 102
0.564609 -0.804487 3.931159 166 148 127
-0.458000 0.792791 2.679655 87 66 61
0.675046 -0.410232 2.953932 66 69 69
-1.483104 -0.247308 4.235160 181 165 145
-0.463511 -1.001579 1.884045 166 157 143
-1.527565 1.190107 2.681094 118 104 105
-0.941524 -3.125575 4.773388 136 122 106
0.558717 -0.799522 3.890880 169 151 130
1.535101 -1.577486 3.168119 157 145 131
0.417533 0.908226 2.978070 154 141 125
-0.964433 -2.091762 3.903634 167 157 143
0.723733 -0.986532 3.450281 185 170 151
0.701183 -2.817625 3.959816 115 103 91
0.744203 -0.691689 3.437329 169 157 137
3.050166 -0.430616 5.365183 155 140 125
0.541636 0.152453 3.654523 190 170 142
0.621341 -0.961179 4.391081 163 143 118
-1.544783 -1.009776 4.557564 189 174 152
0.099032 0.762611 2.995443 46 46 48
1.185427 -2.387602 3.771434 159 148 131
0.538973 -2.380887 3.607166 170 159 143
-0.460316 0.177607 0.802921 160 118 96
0.593567 0.883918 3.019086 174 157 142
1.594474 -5.323558 10.136237 173 159 142
-0.146365 0.542091 1.282077 113 99 98
3.936749 -3.637511 6.313023 165 149 132
3.049705 -1.347829 5.597416 130 113 96
-0.941204 -0.076474 5.112383 150 133 114
-0.812485 -0.463942 4.551496 138 125 102
0.903824 -0.836742 4.174130 170 159 138
-0.457708 0.177620 0.798276 154 116 99
0.577862 0.592852 4.179074 174 158 140
-0.452593 0.877403 3.113591 115 102 98
0.696498 -2.313127 3.798940 162 152 137
-0.548081 0.921353 5.492752 67 54 46
0.595692 -0.412474 3.073474 65 63 62
-0.865853 0.671939 1.785550 85 68 66
0.378962 0.876204 1.955540 109 92 89
0.508131 -0.994119 3.920947 167 145 122
-0.352748 0.679045 2.435522 115 101 98
3.912136 -4.650652 6.729185 158 145 130
0.938864 -1.120480 3.530263 176 160 144
-0.922827 0.817631 2.728377 141 125 113
-1.228506 -0.008950 1.845793 173 155 137
0.567934 -0.397560 3.678418 119 99 73
0.658182 0.151650 3.350525 161 142 121
-0.979481 0.200664 3.369949 174 161 145
0.803808 -2.672040 4.385104 156 148 131
-0.381617 -0.078013 0.970612 156 151 144
-0.355974 0.493061 1.237536 113 97 95
-1.498860 1.204643 3.285856 152 139 131
-1.763515 1.383453 4.512292 154 141 129
0.429460 0.689301 2.805191 150 114 92
-0.358326 -0.022200 1.233364 183 167 148
0.509438 0.642087 2.825457 181 167 152
-0.817134 -0.684009 4.555907 149 136 118
-0.347235 0.384934 0.958222 108 94 95
-1.806418 -2.236999 5.037306 184 175 164
0.455605 0.679544 4.570170 69 57 51
-0.412927 0.327177 1.081451 135 118 107
-1.469371 1.473614 4.082131 93 71 67
-0.811390 0.362654 4.415127 165 153 137
0.421094 -2.635838 4.212848 160 152 140
-1.317684 1.158199 3.905261 145 130 118
0.556857 0.573407 4.028742 176 160 142
-0.804752 0.359454 4.379086 165 153 137
0.742086 -0.365405 3.450458 170 164 155
0.730067 -2.434604 4.640042 156 142 125
-1.456319 1.113173 3.887424 132 115 99
1.132459 -3.837747 4.951917 160 151 139
-1.586788 0.016012 4.405430 66 62 58
-0.373261 -0.016533 1.033826 64 60 57
-1.842273 0.027784 5.110778 123 114 102
-0.365766 -0.014903 1.013524 116 108 98
-0.438049 -0.011280 1.215227 114 103 89
