ply
format ascii 1.0
comment author: Alexander Kryvonos
comment object: reconstructed scene with color
element vertex 227
property double x
property double y
property double z
property uchar red
property uchar green
property uchar blue
end_header
-3.058560 -0.339030 3.813780 53 55 68
1.222562 0.502436 4.154957 44 43 77
1.242553 1.077314 3.721224 167 169 127
0.561287 0.718849 4.211000 164 165 118
-3.100281 -0.356266 3.865116 54 55 70
-1.442351 2.026693 3.282268 231 251 182
1.282308 1.117306 3.823456 168 170 125
1.312466 1.142077 3.917384 165 167 125
0.334659 0.450294 4.270460 46 38 81
1.217995 0.499749 4.141303 44 43 77
0.646690 0.221956 4.287790 164 149 103
0.721313 0.156894 4.281032 166 153 104
1.256584 0.249069 4.262935 53 49 78
-0.282899 2.330373 3.656621 38 44 77
0.398587 0.008131 4.282689 59 54 83
1.170074 0.345510 4.205926 56 55 79
-1.801293 2.050430 3.482307 120 103 90
-2.590504 1.487131 3.470436 42 43 56
0.588447 0.705250 4.188991 157 163 115
-1.408486 1.979185 3.205228 233 251 185
-0.700524 -1.436066 4.528024 175 185 117
-2.524976 1.440082 3.375310 42 42 55
-2.518134 -0.103030 3.977571 184 183 132
-2.460015 1.392974 3.279460 42 42 55
0.316960 -1.386778 4.452640 159 171 122
1.384987 0.344826 4.218580 176 167 123
-3.007263 1.189498 3.337647 108 121 81
-2.553235 1.451181 3.384163 40 41 53
-1.997514 2.259773 3.854964 122 104 90
-2.044906 2.251432 3.841619 125 109 91
-1.542511 1.974338 3.204717 239 249 192
-2.947931 1.335069 3.260314 121 134 86
1.238389 0.241347 4.209587 54 50 78
-2.072753 2.226730 3.789538 129 112 89
-2.038387 1.980750 3.377930 87 74 86
0.827933 0.813996 4.239883 34 31 71
0.552122 0.573098 4.249094 43 42 78
1.170620 0.350129 4.296814 50 47 77
1.390144 0.348852 4.249952 176 167 123
-0.037225 1.555408 3.676723 40 36 75
0.589488 0.072238 4.353550 152 142 109
0.313986 -1.393816 4.464993 169 179 126
-1.582426 1.956027 3.192722 228 246 176
-3.069742 0.095225 3.758855 45 48 56
1.419432 0.068452 4.238090 192 179 130
0.765826 0.204029 4.154810 154 144 100
0.921509 1.428469 4.153855 139 149 123
-1.740088 1.969427 3.180300 225 250 174
-0.201743 2.222191 3.674615 78 134 205
-1.768483 2.067102 3.513554 120 100 88
1.333330 0.699863 4.147636 54 56 77
-1.721058 1.910588 3.114414 224 246 161
-2.928921 1.457510 3.217573 118 130 87
0.712682 -0.527963 4.443627 96 82 90
-1.688511 1.922938 3.137784 222 246 167
0.992614 0.284416 4.285444 42 39 65
1.017991 0.259383 4.277589 44 41 68
-1.615149 1.944221 3.171416 226 251 175
0.654116 0.162962 4.311729 171 159 101
-3.123032 0.109637 3.788565 48 51 60
-2.723389 0.346759 3.226225 59 55 54
0.013071 1.735375 3.636726 43 43 70
-1.827137 1.880697 3.065247 199 235 167
-1.077602 -1.824558 4.780738 151 153 134
-0.184632 0.690616 4.381351 197 141 99
0.310064 0.755592 4.190139 43 32 66
0.269531 -1.186448 4.529192 68 63 68
0.802464 0.022179 4.258341 132 123 95
1.056950 1.038109 4.174017 47 49 67
-2.951950 0.107712 3.583293 47 51 57
0.314974 0.959828 4.203351 39 32 68
0.484775 0.143460 4.307113 164 155 109
0.626161 1.007278 4.162728 34 32 71
1.245775 -0.035828 4.357800 49 46 67
0.362263 1.138853 4.212909 102 102 106
-1.360154 -0.994552 4.305288 237 225 149
-2.953497 0.204895 3.433718 154 179 97
-0.203417 2.250898 3.717982 79 135 202
0.407524 -0.283005 4.377736 73 64 86
-0.873744 -1.260465 4.530046 160 151 122
-1.194031 -0.993827 4.338975 239 228 151
0.382522 0.748956 4.235282 112 113 109
-1.646891 1.928853 3.142509 219 240 161
0.893265 -0.381342 4.266515 103 111 112
-2.382134 1.347174 3.174330 42 44 54
-1.791597 1.886034 3.080926 196 216 147
0.395281 0.570710 4.268532 159 162 129
0.498303 -0.324848 4.370774 69 64 81
-3.177271 0.223897 3.750686 174 206 96
0.691607 1.448095 4.226929 43 44 71
1.377623 0.574387 4.215179 167 163 118
-2.452132 -0.913449 4.179526 109 107 95
-2.804035 0.367933 3.334874 56 56 63
0.358577 2.131263 3.405580 43 44 80
-0.039785 2.257696 3.666439 43 46 81
0.286673 1.579546 3.866091 135 133 117
0.226742 -1.092442 4.488376 61 56 70
0.315205 1.458378 4.189512 41 42 71
-0.229018 -1.431985 4.535514 153 155 130
0.336892 1.913012 3.642414 68 68 86
-0.906327 -1.499959 4.508988 123 122 117
0.532471 2.032192 3.316985 194 227 149
-1.865822 1.876615 3.057847 218 243 174
0.019244 2.087192 3.534886 58 61 95
1.251063 0.315847 3.801867 185 173 128
-2.809638 0.441035 3.210529 142 156 99
-1.406393 -1.030981 4.445423 235 223 148
-0.465199 -1.417147 4.480532 183 194 131
-1.756873 1.902837 3.100848 216 244 157
0.429637 1.860855 3.664866 60 64 80
1.324696 1.620683 3.385848 215 249 153
-1.553908 1.883899 3.183581 113 95 88
1.195737 -0.371190 4.247679 128 130 101
-0.862154 -1.473167 4.538314 118 118 115
0.737054 -0.547077 4.597972 93 81 91
1.378534 1.436855 3.942618 177 176 141
1.305271 0.679820 4.070646 54 55 77
0.830536 -0.913417 4.455907 149 133 112
-1.919432 1.846073 3.000159 218 245 184
-2.161319 1.999857 3.427579 94 79 95
1.116583 0.131859 4.235237 149 139 102
-2.798719 1.379938 3.068124 121 136 87
0.015293 1.496744 3.782652 157 154 103
-0.425321 -1.264239 4.464163 102 88 84
0.551602 2.036352 3.095560 192 228 140
-3.129442 0.222172 3.637975 145 162 102
0.705855 -0.098112 4.310418 149 133 97
-0.771653 -1.032021 4.462632 193 173 129
0.326691 0.795885 4.365999 44 31 61
-2.361166 -0.876407 4.028411 109 107 97
1.247227 -0.033983 4.359652 49 46 67
-1.903733 0.585431 3.939278 202 148 93
-1.895991 2.004174 2.960603 152 175 139
0.960622 0.739353 4.144290 38 34 77
-2.813428 0.384279 3.359353 57 60 64
0.856193 1.563989 2.608469 72 80 114
-1.038872 -1.015081 4.451821 227 217 137
-1.112749 1.575514 3.941290 107 75 88
-1.437645 1.746928 2.946523 104 89 88
0.265395 1.664814 3.881363 145 141 119
1.175901 -0.321753 4.295015 77 77 88
-0.195747 1.651060 3.700765 132 128 107
0.215160 2.012174 3.620202 110 111 111
-2.255163 2.086745 3.576417 95 80 94
-1.519750 -0.288570 4.025652 246 248 157
0.609706 1.514866 3.918364 131 129 108
0.462919 2.178782 3.208234 113 124 128
0.222951 -1.430603 4.591695 176 183 130
1.364693 1.502588 3.964073 172 171 132
1.435288 0.353945 4.403268 170 163 119
-2.729765 0.054974 3.299206 47 48 59
0.016183 2.067540 3.518095 59 63 95
-2.981185 -0.106111 3.485056 139 152 100
-3.084249 -0.461334 3.719472 179 215 109
0.320772 1.480000 4.235801 41 43 71
-2.210370 0.579730 3.402809 175 175 127
0.662262 1.938136 3.082353 128 134 158
0.813304 1.715262 2.655274 75 82 114
-1.431129 -0.670381 4.252237 243 248 205
0.277759 1.755649 4.113886 143 139 121
0.863926 1.578891 2.631105 72 80 114
-0.000742 2.387533 3.641597 105 158 156
0.652249 1.819255 3.591158 48 50 85
-0.593414 -1.510841 4.616710 150 161 133
-1.015883 0.421094 1.342247 170 168 126
-0.859884 -1.468170 4.537786 117 116 113
-1.519830 -0.692444 4.130443 244 251 160
-1.509725 -0.389282 4.493301 243 247 213
-1.738257 1.849779 2.991746 206 233 153
-1.395894 1.790114 2.900970 236 249 186
0.277243 -1.408801 4.445351 168 173 128
-2.197158 1.199992 3.385234 163 162 129
0.914666 1.168473 1.789252 90 87 110
1.522920 1.683996 3.464587 217 251 151
0.852054 -0.181843 4.247809 139 133 102
-1.041878 -0.764764 4.234725 196 174 147
0.545438 1.911876 4.124510 89 88 96
0.903807 1.131219 1.769769 90 87 109
0.754462 1.828039 2.787433 184 215 165
-0.004814 1.650091 3.501932 37 38 71
-1.576398 -0.712226 4.294280 244 250 168
-2.180151 0.014618 3.428330 183 182 138
1.023400 0.419602 3.146923 186 179 128
0.802277 1.653495 3.250083 121 137 132
-0.265686 1.599432 4.371650 158 120 86
0.256488 1.410580 3.106118 128 129 107
0.572458 1.182045 4.229004 54 53 82
1.412351 1.765482 3.322866 152 165 159
-3.013896 0.063269 3.785945 44 45 57
0.814259 -0.162374 1.656952 219 247 172
0.906652 1.015947 1.808953 113 109 108
0.530891 1.960321 2.974789 192 227 142
0.447909 2.133231 3.209841 52 52 105
1.538019 1.636562 3.374117 120 132 120
0.968347 0.241672 4.081220 44 42 70
0.803603 -0.160449 1.635496 216 240 171
0.895356 1.036495 1.767205 102 99 106
0.914181 1.164106 1.789754 90 88 110
-3.015974 1.166567 3.330211 109 122 80
-0.935690 0.135811 1.187808 179 190 127
0.916964 1.167326 1.795417 90 88 110
-1.519383 -0.696616 4.551441 243 248 205
-0.855990 -1.103756 4.462896 140 129 114
0.612810 1.725166 3.512119 74 77 80
1.488150 1.630425 4.339738 162 163 137
0.389299 -0.264341 4.162055 67 58 86
0.824176 1.007566 3.933970 91 93 89
-2.510447 -0.110635 3.817365 177 187 106
0.964462 0.653490 3.322154 50 51 71
0.905256 1.172629 1.872163 62 65 117
-0.946828 0.137387 1.209370 177 187 118
0.920079 1.290191 1.972796 60 64 111
0.770718 1.853497 3.034538 195 223 168
2.097386 2.580689 4.787420 91 94 121
2.799763 3.344552 6.816511 138 163 152
0.252894 1.235560 1.951133 110 121 139
1.531399 3.955163 6.268279 156 168 138
0.956285 -0.248728 1.951433 223 237 173
0.827317 1.263544 2.322464 141 153 148
0.634137 1.717458 2.841438 115 129 145
0.916958 1.567735 2.698703 69 70 121
1.617340 -0.142612 2.646447 216 248 192
1.695934 -0.143471 2.768455 220 246 197
1.300180 -0.105755 2.118334 147 161 141
1.467238 -0.119038 2.390239 148 159 141
1.378283 -0.123655 2.257564 150 163 142
1.374127 -0.121579 2.248793 150 164 140
