ply
format ascii 1.0
comment author: Alexander Kryvonos
comment object: reconstructed scene with color
element vertex 317
property double x
property double y
property double z
property uchar red
property uchar green
property uchar blue
end_header
-0.013481 0.225002 3.713371 216 213 167
-0.009266 0.227898 3.704773 217 211 166
-2.269479 0.397998 3.784129 218 206 162
-1.338751 -1.701933 4.006500 202 238 189
-1.930257 0.396696 3.755367 209 198 170
-0.233534 -0.135339 3.791764 46 42 57
-0.666867 -1.944374 3.993595 115 175 194
-0.782521 -1.809910 3.987977 43 42 65
-1.641204 0.182548 3.838159 51 49 51
-0.987729 -0.795913 3.914125 179 213 196
-2.376726 0.374832 3.834102 218 214 155
-2.967914 0.000304 3.850100 192 192 140
0.151472 0.206343 3.687264 205 199 175
-2.943415 0.025205 3.841181 191 188 143
-1.104036 0.232847 3.807889 227 217 167
-2.376637 0.150205 3.881857 50 48 51
-1.846170 -0.747850 3.929172 198 229 215
-0.375922 -0.219851 3.795260 188 228 215
-0.587749 -1.671899 3.953133 34 31 41
-2.414174 0.358378 3.817572 216 213 162
0.761147 -0.752715 3.773988 195 204 155
-1.338346 -1.697447 4.011668 203 240 188
0.020789 -1.851298 3.932687 31 30 34
0.019875 -1.837408 3.916799 31 30 34
-2.730830 -2.501280 4.166149 58 50 60
-2.078681 -0.002161 3.839373 52 46 58
-2.737361 -2.510204 4.175467 60 53 63
-1.583304 0.392072 3.785180 227 223 164
-2.402471 -0.121427 3.872554 195 229 223
-1.684031 -2.546112 4.156368 48 54 63
-2.929358 -0.142192 3.859354 191 188 145
-2.679323 0.440559 3.839853 215 206 154
-0.996101 -0.747325 3.900950 185 216 185
-1.847423 -1.624855 4.045515 35 34 38
-2.111500 -0.504771 3.913513 65 70 99
-2.815534 -2.628439 4.182103 206 228 149
-0.616902 -0.131961 3.809968 44 40 50
-0.248624 -0.164685 3.780179 69 67 80
1.015469 -0.698987 3.760980 198 204 156
0.336618 -1.959635 3.973031 79 82 90
-2.084157 -1.614643 4.071603 35 35 34
-0.994559 -0.853909 3.920156 180 204 197
-2.936947 0.005503 3.837338 192 191 142
-0.429522 0.294554 3.762545 220 214 174
-1.212498 0.309800 3.832634 208 190 165
-2.286389 0.454934 3.758782 222 214 158
0.195320 -2.093978 3.986682 166 206 175
-3.395805 -2.336743 4.182833 209 225 163
-0.987867 -0.783902 3.909348 164 191 179
-2.083731 -1.632090 4.081306 35 36 33
1.024792 -0.701837 3.778669 198 203 155
-0.430825 0.294935 3.774580 219 216 175
-0.035762 0.283526 3.662540 221 218 165
-2.275931 0.022106 3.853784 51 45 58
-1.994839 -0.075122 3.838814 105 106 112
-1.069435 -2.115723 4.032301 29 28 37
-0.064609 -0.297796 3.733864 179 201 199
-3.419341 -2.341381 4.214387 209 225 155
-0.855695 -1.842709 4.009259 42 39 69
-0.200957 -0.233492 3.770852 173 188 185
-2.249077 -1.768907 4.084075 181 214 183
0.454328 0.012905 3.678101 211 207 159
-1.063582 -2.125621 4.009710 29 28 37
-0.917866 -1.941553 4.023283 133 204 212
-2.031868 -1.673162 4.072675 36 35 41
-0.618731 -0.149751 3.809146 44 37 53
-0.737159 -1.851303 3.983022 44 42 64
-1.908607 -0.119307 3.851152 108 109 122
-0.808497 -0.150472 3.815703 45 40 56
-1.666179 -1.530615 4.029380 34 34 37
-2.109619 -0.504659 3.910085 65 70 99
-0.292048 -0.937917 3.881285 25 23 43
-1.752160 -0.484285 3.868334 63 68 68
-1.137308 -0.550140 3.873951 100 117 93
0.452185 -1.211960 3.847453 30 28 37
0.656087 -2.062694 3.962016 160 195 186
-2.221465 0.350554 3.800496 202 195 162
0.610438 -1.975149 3.943655 76 81 105
-1.238061 -1.956007 4.008841 157 218 213
-1.899388 -0.697898 3.908372 198 225 219
-0.290335 -0.927331 3.881275 24 23 45
-2.620833 0.380961 3.805676 211 208 157
-3.942767 -2.694096 4.860452 202 224 152
-1.184880 -1.828012 4.003085 69 75 103
-0.450831 -0.169001 3.794989 55 48 77
-2.694123 -2.367387 4.136316 53 55 58
-0.917024 -0.589129 3.875724 215 234 211
-2.952008 -0.141661 3.859673 194 189 143
-2.855320 -2.664332 4.241530 206 228 150
-0.308866 -0.808882 3.880317 46 51 57
0.392904 -1.686756 3.882819 46 45 75
-0.286186 -0.460419 3.806166 100 125 97
-1.254686 -0.422368 3.876468 42 41 51
-0.727307 -0.098307 3.830921 43 39 50
0.466122 -1.792239 3.899374 44 49 70
-2.099152 -2.272071 4.140103 61 66 87
-1.844774 -2.268438 4.148219 142 170 141
-1.913410 -0.704239 3.937407 198 224 217
0.476202 -0.610504 3.806178 200 200 163
0.674080 -0.557263 3.762414 208 207 155
-0.882550 -0.673418 3.902039 99 100 116
-2.457558 0.361139 3.887500 215 213 159
-3.013525 -2.076372 3.711261 202 220 155
-3.196042 -2.363356 4.272324 208 226 157
-0.367115 -0.292072 3.791395 192 210 188
-1.042439 -0.945205 3.947873 21 21 41
0.483074 -2.066713 3.960085 165 202 183
0.641699 -0.596215 3.790238 209 213 148
-2.341390 -0.734640 3.942725 195 193 154
-1.116407 -1.235522 3.944045 29 27 32
1.074047 -2.631834 4.011528 39 38 44
-0.720517 -0.099456 3.796530 43 39 52
-0.160984 -0.679108 3.863411 52 51 76
0.783270 -0.740771 3.830285 200 207 154
-0.909276 -1.946026 4.012246 130 202 211
-2.350745 -0.567466 3.930051 202 196 153
-3.868270 -2.590432 4.722914 202 227 152
-1.641257 -2.041024 4.070379 37 37 42
0.332356 0.284471 3.654314 222 216 165
-2.367881 -0.868322 3.960973 55 55 72
-1.356906 -1.508266 3.972133 127 136 130
-2.506923 -0.668012 3.963577 74 73 82
1.192818 -2.517001 3.995790 160 175 121
-2.341034 -0.734434 3.942114 195 193 154
0.615717 -1.596646 3.891344 118 130 125
-1.178359 -1.811975 4.011389 73 82 107
-3.324319 -2.433644 4.267792 209 230 155
-0.160973 -0.678449 3.861983 52 51 76
-1.459771 0.409716 3.790216 232 222 166
-1.925114 -2.650869 4.188834 92 128 142
-2.451638 -0.733201 3.942900 79 76 100
0.405575 -2.060365 3.968189 167 202 169
0.419355 -1.957770 3.935474 78 80 97
-2.074241 -0.220589 3.885848 112 103 110
-2.101368 -0.339397 3.925337 210 206 168
-1.008668 -1.731030 4.017457 72 62 79
-0.817274 -1.798596 4.004220 42 42 64
1.555858 -1.771009 3.935755 177 189 140
-1.097282 -1.782057 4.001264 63 59 80
-0.326536 -2.388775 4.090072 76 87 104
-2.498397 -0.669545 3.950644 75 73 82
-0.802340 -1.332412 3.946250 87 91 129
-2.860672 -2.670316 4.249220 206 228 152
-2.358114 -2.466561 4.179406 86 97 114
-0.997376 -1.715958 3.973223 72 63 78
-1.817785 -0.432163 3.864406 154 144 132
-2.732732 -2.500485 4.169569 58 50 60
-0.533114 -0.279558 3.800768 65 56 83
-1.107852 -0.766313 3.921756 56 56 83
-0.393823 -0.808932 3.876050 145 165 158
-2.076843 -1.900527 4.092730 53 50 82
-2.247850 -0.532889 3.926300 192 225 217
-1.856450 -1.239944 3.993262 28 27 35
0.622526 -1.888456 3.930997 58 63 84
0.483692 -1.596475 3.880207 42 42 62
-2.465117 0.453554 3.833045 200 185 158
-0.293239 -0.497176 3.805136 110 135 94
-0.932220 -0.926944 3.932359 21 22 42
-0.512490 -1.152589 3.912422 28 26 29
0.388241 -1.409327 3.877848 41 39 74
1.192150 -0.764610 3.731211 185 192 150
0.141264 -0.051712 3.705867 46 43 55
-0.946598 -2.360190 4.121779 73 87 92
-0.591072 -0.744370 3.892444 48 45 75
-3.028545 -1.415130 4.003240 200 217 175
-1.929926 -0.417113 3.921782 200 201 183
-1.183728 -1.819523 4.029624 73 82 107
-2.090971 -2.296625 4.157851 71 76 100
-2.232914 -0.944874 4.000190 86 78 90
-3.375667 -0.333187 3.942499 169 178 139
-2.351030 -0.249602 3.891574 153 128 111
-2.349951 -0.458366 3.912985 208 197 154
-0.671990 -2.659164 4.157367 49 52 80
-2.052535 -1.700189 4.076733 47 43 52
-2.162352 -0.417725 3.893783 99 111 112
-2.565134 -0.631694 3.929327 51 49 59
-1.861773 -1.264337 4.004475 32 30 35
-1.872061 0.351958 3.754239 218 212 167
-0.675165 -0.990464 3.911849 17 16 30
-1.422459 0.306814 3.792376 149 137 146
-0.347600 0.442441 3.774163 228 217 161
-1.371974 -1.026783 3.903354 17 15 27
0.330376 0.280032 3.629151 222 216 165
1.420681 -1.213608 3.838981 162 167 132
-1.372311 -2.423258 4.159681 75 80 85
-1.770422 -1.638350 3.976301 34 33 43
-0.307155 -0.445488 3.825577 95 119 98
-1.463356 -1.531547 3.951664 34 34 39
0.449646 -2.090007 4.018926 167 204 176
-1.052042 -1.928430 4.013726 49 52 77
1.217158 -0.710973 3.727701 193 202 149
-2.384502 -2.272640 4.156871 77 85 97
-2.335463 0.251617 3.850019 64 59 78
-2.171387 -2.472849 4.169846 130 151 139
-2.133901 -0.730028 3.938764 70 59 92
-1.829169 0.363170 3.842919 214 212 156
0.729056 -1.659199 3.892966 113 124 133
-1.476975 -1.541511 3.988266 34 34 37
-2.008392 0.362274 3.758440 213 203 163
1.472700 -1.448801 3.836026 177 189 143
-2.060036 -1.217386 3.999395 23 27 33
1.297277 -2.345703 3.955930 115 118 106
-0.056008 -1.144797 3.866955 29 27 32
-2.244228 -2.651344 4.192769 83 114 141
-2.245544 -2.293300 4.132522 80 91 103
-0.950075 -0.461264 3.868766 94 86 90
-2.083258 -2.659169 4.190955 79 109 132
-1.128071 -0.513049 3.877219 129 145 117
-2.702134 0.095605 3.869643 49 47 48
-2.351721 -0.904805 3.989008 55 55 73
-1.919757 -0.512683 3.901943 191 222 226
-2.572764 -0.307843 3.920055 72 71 80
1.485486 -1.450213 3.839084 178 189 143
-2.111506 -0.512400 3.914681 65 68 98
-2.522959 -0.930772 3.985910 77 79 85
-0.235813 0.415339 3.680852 200 188 169
-0.876089 -1.803766 3.991199 41 42 64
-1.826134 -0.887253 3.959541 110 88 95
1.134010 -0.671150 3.759946 173 175 149
-2.387242 -2.272313 4.157721 77 85 97
0.820168 0.290572 3.596082 205 209 157
-1.930530 -2.296024 4.168021 59 64 93
1.184759 -2.501811 3.965853 158 173 123
-0.885065 -0.240328 3.821978 99 94 113
-2.328031 -2.219502 4.140376 129 155 136
0.953598 -1.160403 3.796730 33 31 40
-2.467080 -0.591935 3.931150 78 73 86
1.505348 -2.587071 4.037655 147 160 116
-1.861924 -2.304954 4.143737 137 159 142
-0.863554 -2.438438 4.112606 69 75 89
-1.328474 -1.486917 3.975311 138 157 154
-0.572188 -0.740690 3.882290 47 44 75
-3.992304 -2.560866 4.655345 197 213 161
1.218976 -0.709892 3.734780 192 204 149
0.912584 0.016604 3.662239 180 176 157
-2.179600 -2.267396 4.143977 131 158 144
-1.864784 -1.223274 4.023104 22 24 38
0.664509 -2.502761 4.304522 166 210 182
-2.085316 -1.913166 4.108979 53 52 83
0.455928 -0.001963 3.692698 210 206 162
-0.522489 -0.765975 3.878976 50 47 75
-1.935187 -1.994409 4.111741 59 59 87
-0.301905 -0.448128 3.823637 95 119 98
-0.769687 -0.520698 3.868440 111 131 101
-1.663716 -0.985968 3.986169 24 24 36
-3.476154 -0.322713 4.055545 169 171 138
-2.917124 -0.288468 3.877133 180 176 144
-0.927728 -2.557495 4.139975 83 96 101
-0.167530 -0.927471 3.877122 34 38 59
-2.073357 -0.225065 3.885321 118 104 108
-0.711591 -0.425001 3.858067 87 66 87
-1.107568 -1.892641 4.076258 66 63 81
-1.899483 0.357620 3.809025 216 206 177
0.434192 0.686264 3.581262 188 178 156
-3.967842 -2.787195 4.942163 204 224 161
-0.144501 -0.589847 3.891637 123 143 119
-1.935471 -2.315361 4.171860 80 87 97
-2.459774 -1.138624 4.015460 91 101 102
1.024931 -0.117489 3.657639 176 170 161
-1.921610 -0.212561 3.872564 142 146 140
1.655098 -1.664984 3.909994 149 153 139
-1.440857 -1.524818 3.932406 36 37 43
-2.140443 -1.910438 4.089182 86 85 100
-1.705466 -0.748196 3.993128 44 41 49
-3.161748 -1.019049 3.972047 78 81 92
-0.457640 -2.086801 4.017380 26 26 34
-3.155723 -0.193334 4.015981 193 188 147
-2.076089 -0.237308 3.888346 123 104 110
-2.182035 -0.331868 3.820218 208 206 163
-2.019396 0.374726 3.775140 216 208 164
-1.261730 -1.465345 3.956634 44 41 70
-3.025685 -1.418145 4.015718 202 222 176
-0.725794 -2.518724 4.129346 84 96 101
-2.539777 -2.047656 4.126291 29 29 37
-1.709132 -0.766602 4.005961 43 40 50
0.903581 -0.543539 3.727996 178 181 155
-1.470541 0.162742 3.811329 106 103 127
-1.781753 -1.113969 3.974389 84 83 84
-2.019535 -2.290391 4.150213 131 156 136
-0.759048 -0.398557 3.771408 85 61 87
-3.448606 -0.878789 3.955446 145 150 142
-2.057077 -0.103203 3.887211 116 116 115
-1.155425 -2.302725 4.119438 31 30 36
-1.415625 0.585197 3.740044 212 193 165
-1.716902 -0.503282 3.793301 58 57 65
-1.889156 -0.213717 3.808300 129 132 134
-1.956985 -0.523322 3.879861 186 216 222
-1.263010 1.012088 3.710333 213 201 152
-0.008896 -0.572858 3.783120 128 146 133
-3.029920 -1.487999 4.010877 186 182 146
-0.014021 -0.807705 3.865908 49 45 81
-2.273723 -2.012816 4.120790 53 56 87
-0.947321 -0.455571 3.855600 93 85 87
-1.135226 -0.130237 3.818580 47 41 53
-3.323919 -1.001634 3.983773 117 125 116
-3.534780 -2.425900 4.239420 185 201 152
-2.244315 -0.524638 3.918770 191 225 219
-3.426585 -0.970093 3.980579 85 88 107
-2.287603 -1.762328 4.274515 43 39 47
-1.102753 -0.777695 3.906648 57 59 80
-1.640781 -1.504705 2.535825 50 51 65
-1.902686 -2.059997 3.752548 62 67 97
-3.605449 -0.306281 4.196754 168 174 135
-2.335468 -2.239037 4.064169 107 118 124
-3.527690 -1.835586 4.069988 86 98 105
-0.380621 -0.812973 3.880581 143 165 166
1.634341 -1.860655 4.133977 175 189 134
-2.343562 -2.230704 4.081651 98 103 113
-1.068184 -0.498756 3.911000 146 178 150
-1.852852 -1.201414 3.996218 29 32 44
-0.977810 -0.722736 3.840210 133 148 153
-1.841537 -1.816910 4.057776 179 215 172
-2.617889 -2.528341 5.762965 183 214 180
-3.091369 -2.925265 6.779651 147 167 156
-3.078627 -2.939970 6.764123 146 166 155
-4.229321 -3.340176 8.002746 118 134 128
-0.583566 -0.678301 1.235578 170 196 156
